ncols        484
nrows        40
xllcorner    336837.017719
yllcorner    7655267.24556
cellsize     89.043130141073
NODATA_value -32768
1566 1534 1501 1469 1437 1405 1372 1338 1303 1267 1229 1192 1154 1117 1080 1044 1007 970 933 897 862 830 800 773 748 725 705 688 593 606 617 621 635 679 708 750 775 801 844 863 899 905 915 939 973 1007 1011 985 954 948 968 990 999 975 939 930 939 943 941 944 946 946 945 948 971 1010 1053 1046 1033 1069 1134 1335 1366 1397 1427 1456 1485 1513 1540 1566 1591 1613 1634 1653 1670 1684 1696 1703 1707 1705 1700 1690 1678 1663 1645 1624 1601 1575 1518 1488 1459 1431 1402 1371 1339 1305 1269 1234 1199 1166 1136 1109 1084 1060 1036 1014 993 974 959 947 939 935 934 935 938 944 954 969 989 1014 1042 1072 1104 1343 1432 1532 1671 1726 1723 1695 1688 1702 1707 1682 1683 1676 1674 1675 1685 1682 1670 1662 1656 1651 1648 1642 1635 1632 1629 1625 1623 1618 1614 1611 1606 1601 1602 1599 1601 1600 1599 1600 1599 1599 1598 1597 1598 1602 1602 1601 1602 1599 1599 1602 1606 1615 1628 1627 1620 1619 1614 1615 1616 1615 1618 1621 1626 1630 1623 1598 1525 1462 1406 1404 1412 1422 1429 1431 1430 1428 1431 1428 1424 1429 1428 1420 1411 1401 1385 1377 1372 1377 1359 1339 1337 1336 1335 1333 1330 1330 1348 1360 1354 1369 1397 1419 1423 1449 1459 1466 1473 1485 1483 1455 1445 1479 1519 1555 1608 1652 1693 1724 1738 1747 1752 1755 1759 1763 1762 1765 1762 1747 1743 1739 1733 1734 1735 1730 1728 1732 1731 1727 1736 1740 1742 1733 1726 1729 1730 1730 1725 1715 1708 1703 1700 1699 1690 1677 1669 1672 1682 1682 1700 1702 1707 1710 1713 1722 1724 1722 1722 1710 1701 1695 1685 1655 1650 1644 1642 1642 1634 1627 1621 1620 1615 1608 1597 1588 1575 1565 1556 1550 1552 1541 1533 1530 1520 1513 1515 1513 1513 1504 1499 1501 1504 1507 1508 1506 1504 1494 1468 1468 1471 1468 1455 1440 1421 1407 1393 1380 1380 1384 1378 1370 1292 1228 1197 1189 1063 988 974 861 856 869 878 936 1106 1168 1225 1291 1285 1295 1289 1268 1231 1229 1219 1207 1193 1182 1176 1165 1150 1131 1122 1112 1100 1095 1081 1063 1047 1029 1009 990 979 970 956 943 927 914 902 892 879 865 850 830 818 807 790 752 741 733 728 713 696 684 674 659 642 629 617 607 597 582 567 546 541 529 516 498 483 467 451 436 421 405 394 384 367 348 341 334 319 287 270 263 255 242 228 220 213 204 200 193 180 166 153 136 118 108 99 93 86 78 64 59 54 49 45 40 36 25 6 -32768 -32768 -32768 -32768 -32768 -32768 -32768 -32768 -32768 -32768 -32768
1569 1537 1506 1474 1443 1411 1378 1344 1310 1274 1238 1200 1163 1125 1088 1051 1015 979 943 907 873 841 810 782 755 732 711 618 630 622 632 633 632 702 750 781 810 854 870 884 921 945 973 996 1014 1024 1003 959 919 907 917 937 950 936 916 918 933 935 931 927 929 927 928 939 971 1010 1053 1007 1009 1058 1108 1333 1366 1397 1428 1458 1487 1514 1541 1566 1589 1611 1631 1648 1664 1676 1686 1692 1695 1693 1686 1677 1664 1649 1631 1610 1588 1563 1535 1477 1447 1417 1387 1356 1322 1288 1253 1218 1184 1152 1122 1095 1070 1046 1023 1002 983 966 951 940 932 927 925 926 929 935 946 961 981 1006 1033 1063 1170 1314 1400 1500 1607 1696 1714 1689 1660 1662 1667 1657 1660 1659 1661 1663 1671 1670 1660 1652 1645 1640 1636 1630 1630 1628 1626 1623 1621 1617 1614 1607 1601 1599 1597 1598 1599 1599 1599 1600 1599 1599 1598 1596 1598 1601 1600 1599 1599 1599 1600 1604 1609 1621 1634 1639 1640 1655 1662 1655 1642 1634 1629 1629 1631 1630 1618 1601 1528 1464 1416 1417 1425 1439 1445 1446 1443 1444 1444 1447 1439 1440 1437 1431 1424 1415 1405 1397 1386 1367 1347 1344 1340 1338 1339 1335 1331 1331 1340 1353 1362 1382 1421 1445 1451 1479 1492 1500 1507 1513 1510 1487 1462 1534 1585 1616 1665 1698 1731 1755 1766 1772 1776 1778 1781 1780 1779 1777 1777 1766 1764 1755 1748 1752 1753 1751 1745 1751 1751 1748 1751 1758 1757 1746 1739 1738 1740 1739 1738 1735 1731 1726 1723 1718 1708 1697 1690 1693 1701 1703 1700 1702 1707 1710 1713 1741 1743 1742 1737 1730 1720 1709 1695 1682 1663 1661 1662 1659 1654 1649 1643 1642 1640 1630 1621 1606 1599 1594 1583 1574 1575 1568 1566 1564 1551 1546 1550 1548 1545 1541 1543 1542 1542 1548 1544 1540 1542 1535 1516 1515 1514 1509 1492 1473 1435 1406 1401 1396 1395 1392 1383 1354 1309 1257 1225 1209 1108 1020 969 899 976 996 1019 1044 1111 1164 1238 1300 1339 1347 1341 1322 1301 1274 1262 1247 1232 1221 1208 1192 1176 1162 1143 1133 1125 1118 1101 1080 1064 1047 1021 1002 992 980 969 958 946 931 917 906 892 881 868 853 838 819 802 773 761 753 745 732 718 704 690 671 657 643 630 624 614 598 582 561 541 529 516 498 483 476 465 448 436 421 412 401 386 373 362 346 331 295 282 274 262 244 233 227 224 216 210 199 183 167 155 141 128 111 102 91 87 79 68 64 58 51 44 40 34 28 11 -32768 -32768 -32768 -32768 -32768 -32768 -32768 -32768 -32768 -32768 -32768
1571 1540 1509 1479 1448 1416 1384 1351 1316 1281 1245 1208 1170 1133 1095 1059 1022 986 951 916 882 850 819 789 762 738 562 593 645 678 748 744 754 797 834 867 844 898 916 925 933 977 1023 1044 1047 1027 985 939 899 884 884 887 895 892 885 906 924 923 922 920 924 918 905 918 948 961 998 1007 1009 1058 1108 1333 1366 1399 1431 1461 1490 1518 1543 1567 1589 1610 1628 1644 1658 1669 1678 1683 1684 1682 1675 1664 1651 1635 1617 1596 1574 1549 1522 1465 1434 1404 1372 1340 1305 1269 1234 1200 1167 1136 1107 1080 1055 1031 1009 988 970 954 941 931 923 918 916 916 919 926 937 952 972 997 1025 1055 1158 1304 1366 1427 1608 1675 1692 1675 1646 1641 1639 1641 1647 1650 1653 1656 1658 1659 1651 1643 1635 1630 1629 1628 1623 1622 1623 1623 1618 1613 1607 1604 1599 1598 1597 1595 1597 1599 1599 1599 1601 1601 1598 1596 1598 1601 1602 1599 1598 1599 1600 1604 1614 1626 1636 1647 1673 1694 1706 1679 1658 1650 1641 1635 1633 1627 1613 1604 1561 1497 1448 1441 1451 1457 1455 1453 1452 1452 1452 1451 1448 1450 1450 1444 1434 1428 1426 1418 1378 1356 1349 1347 1345 1342 1340 1337 1334 1334 1336 1348 1370 1399 1434 1465 1483 1507 1520 1530 1534 1535 1538 1528 1493 1541 1629 1681 1719 1738 1759 1775 1787 1793 1794 1796 1799 1800 1798 1795 1787 1783 1785 1779 1772 1776 1777 1772 1764 1775 1777 1775 1774 1776 1775 1768 1759 1755 1756 1755 1755 1758 1763 1757 1743 1737 1727 1715 1710 1711 1717 1722 1721 1725 1728 1731 1736 1741 1743 1742 1737 1730 1733 1720 1710 1703 1682 1675 1678 1680 1676 1672 1670 1669 1664 1655 1643 1626 1620 1617 1607 1601 1597 1593 1594 1601 1589 1584 1584 1582 1576 1575 1580 1580 1579 1586 1579 1578 1581 1579 1562 1552 1534 1515 1487 1455 1437 1419 1409 1405 1360 1353 1345 1346 1314 1279 1245 1133 1094 1045 958 962 972 987 1013 1047 1102 1165 1258 1345 1413 1390 1379 1360 1342 1317 1304 1281 1259 1253 1236 1217 1206 1189 1170 1155 1147 1138 1115 1101 1084 1064 1040 1019 1003 991 985 977 963 948 929 919 904 889 879 869 854 835 818 794 782 767 757 741 731 719 699 686 673 656 647 636 623 608 594 581 564 543 522 506 487 476 465 448 436 436 428 416 404 391 375 359 341 321 291 276 264 255 246 242 235 224 216 205 190 173 160 147 133 116 108 96 88 81 73 70 69 61 54 43 35 31 10 -32768 -32768 -32768 -32768 -32768 -32768 -32768 -32768 -32768 -32768 -32768
1571 1541 1512 1482 1452 1422 1390 1356 1322 1287 1251 1215 1177 1140 1102 1065 1029 993 958 923 890 857 826 796 768 743 587 617 643 688 785 797 882 914 950 972 1026 981 997 995 982 1006 1047 1065 1060 1021 967 926 891 875 869 855 850 850 865 897 910 905 906 908 916 908 883 881 885 907 943 961 987 1026 1088 1333 1366 1399 1431 1466 1495 1522 1547 1570 1590 1609 1626 1641 1653 1663 1671 1675 1675 1671 1664 1652 1638 1622 1603 1583 1560 1535 1509 1452 1421 1390 1358 1324 1288 1251 1214 1179 1148 1119 1092 1066 1041 1018 995 974 956 941 929 920 914 909 907 907 910 917 928 943 963 988 1016 1050 1101 1198 1345 1244 1625 1647 1671 1655 1632 1626 1628 1635 1637 1640 1642 1646 1649 1652 1645 1635 1625 1624 1632 1627 1620 1618 1617 1617 1613 1607 1604 1603 1599 1597 1596 1597 1597 1599 1600 1599 1599 1601 1600 1598 1600 1601 1602 1599 1598 1600 1600 1605 1614 1632 1647 1656 1674 1714 1723 1691 1667 1649 1639 1637 1637 1627 1617 1609 1586 1539 1492 1485 1488 1470 1461 1457 1456 1459 1457 1457 1456 1455 1455 1451 1441 1439 1442 1406 1374 1361 1354 1354 1350 1347 1343 1339 1338 1341 1341 1353 1377 1412 1455 1489 1513 1532 1541 1549 1555 1559 1560 1559 1554 1569 1629 1668 1715 1759 1781 1798 1808 1809 1812 1813 1817 1820 1818 1812 1804 1803 1806 1809 1796 1796 1795 1790 1788 1795 1802 1806 1796 1795 1793 1788 1776 1769 1770 1770 1776 1779 1781 1775 1768 1763 1751 1736 1725 1727 1733 1738 1740 1745 1752 1754 1757 1759 1758 1758 1751 1745 1733 1720 1710 1703 1699 1694 1697 1700 1693 1692 1692 1687 1682 1671 1660 1648 1641 1636 1632 1628 1623 1621 1626 1631 1628 1627 1625 1619 1616 1615 1619 1623 1620 1624 1617 1616 1618 1619 1603 1493 1471 1455 1449 1434 1442 1425 1365 1349 1333 1327 1311 1229 1172 1116 1074 1046 1009 960 959 963 974 989 1006 1061 1109 1156 1280 1387 1425 1419 1406 1389 1373 1349 1333 1304 1290 1280 1261 1242 1228 1209 1197 1182 1168 1155 1139 1120 1105 1087 1062 1041 1027 1012 1005 993 980 966 945 933 918 907 896 880 868 855 843 826 798 782 769 756 746 731 709 694 680 668 659 650 637 623 615 601 579 559 535 514 494 490 477 466 451 436 428 416 404 391 389 373 349 327 295 283 274 268 264 257 246 238 228 214 199 185 174 158 139 124 116 103 91 87 82 77 73 63 56 46 40 34 8 6 -32768 -32768 -32768 -32768 -32768 -32768 -32768 -32768 -32768 -32768
1570 1542 1514 1486 1457 1427 1395 1362 1328 1292 1257 1220 1184 1146 1108 1071 1035 999 964 930 896 863 831 801 773 580 605 656 683 714 809 868 933 964 1021 1023 1029 1053 1059 1025 1014 1014 1036 1060 1061 1013 952 915 886 863 843 840 836 840 850 870 876 889 902 904 903 888 865 852 859 892 902 928 969 1010 1082 1333 1368 1402 1435 1466 1495 1522 1547 1574 1592 1609 1624 1637 1649 1658 1664 1667 1666 1662 1653 1641 1626 1609 1590 1569 1546 1521 1495 1467 1408 1377 1344 1309 1271 1233 1194 1159 1129 1103 1078 1054 1029 1006 983 962 943 927 917 910 905 901 900 900 903 909 919 935 956 980 1009 1028 1092 1182 1202 1246 1586 1614 1625 1625 1613 1617 1624 1630 1631 1633 1635 1637 1640 1640 1636 1625 1620 1619 1636 1638 1619 1610 1607 1608 1606 1603 1600 1598 1595 1595 1595 1598 1598 1596 1598 1600 1599 1600 1599 1600 1600 1601 1600 1600 1600 1600 1600 1605 1614 1632 1641 1653 1683 1731 1734 1701 1674 1649 1645 1647 1645 1633 1628 1614 1604 1588 1558 1519 1493 1473 1461 1459 1457 1460 1461 1459 1461 1461 1462 1459 1456 1459 1448 1392 1375 1369 1362 1357 1354 1349 1345 1343 1345 1350 1351 1367 1393 1439 1493 1530 1546 1557 1573 1571 1574 1578 1586 1586 1578 1590 1626 1659 1692 1744 1798 1819 1829 1830 1832 1832 1835 1839 1839 1832 1821 1823 1828 1826 1821 1818 1816 1812 1811 1817 1828 1828 1821 1812 1805 1802 1791 1788 1785 1787 1795 1795 1794 1795 1799 1801 1786 1759 1748 1746 1749 1757 1767 1774 1775 1775 1774 1771 1771 1772 1769 1758 1746 1733 1730 1723 1712 1694 1697 1700 1693 1710 1713 1706 1699 1686 1677 1669 1664 1657 1654 1653 1651 1652 1656 1663 1664 1661 1658 1653 1653 1651 1653 1657 1655 1660 1655 1651 1646 1626 1576 1397 1350 1380 1398 1404 1402 1371 1344 1324 1305 1274 1218 1156 1096 1066 1021 981 900 970 966 967 983 1013 1041 1100 1155 1189 1333 1465 1453 1446 1430 1417 1401 1374 1352 1332 1325 1307 1287 1264 1251 1237 1222 1209 1187 1175 1158 1142 1130 1109 1078 1062 1047 1035 1022 1005 994 977 960 947 934 925 911 893 884 874 858 841 812 795 781 767 753 739 718 700 686 678 668 659 650 642 636 619 596 569 549 529 513 504 494 475 462 449 448 437 416 403 389 373 349 327 295 295 287 284 278 266 255 247 237 223 211 198 185 163 146 135 121 108 98 91 83 78 70 62 56 49 43 36 3 -32768 -32768 -32768 -32768 -32768 -32768 -32768 -32768 -32768 -32768 -32768
1570 1543 1517 1490 1462 1432 1401 1368 1333 1298 1262 1226 1189 1152 1114 1077 1041 1005 970 935 902 868 836 806 541 556 591 663 717 740 766 880 930 989 999 996 1029 1041 1025 1002 989 1012 1033 1057 1060 1006 938 902 873 849 819 825 832 833 844 864 873 888 896 897 884 859 840 855 871 934 948 980 1012 1028 1070 1337 1373 1407 1440 1471 1501 1528 1553 1574 1592 1609 1622 1634 1644 1652 1657 1659 1658 1651 1642 1629 1614 1596 1577 1556 1533 1508 1481 1453 1394 1363 1330 1295 1257 1218 1178 1141 1113 1089 1066 1043 1020 996 974 953 933 916 907 901 897 895 894 894 897 903 913 928 950 975 994 1024 1051 1110 1199 1551 1567 1585 1593 1599 1610 1620 1623 1623 1624 1625 1627 1629 1633 1631 1625 1620 1615 1611 1616 1620 1607 1600 1598 1598 1602 1600 1597 1593 1593 1595 1594 1594 1596 1595 1596 1600 1601 1600 1599 1600 1600 1601 1601 1600 1599 1602 1602 1605 1615 1632 1641 1653 1683 1743 1726 1693 1677 1657 1655 1657 1650 1636 1626 1621 1627 1632 1592 1544 1470 1465 1462 1460 1460 1462 1464 1464 1467 1476 1477 1471 1470 1472 1447 1392 1380 1375 1367 1361 1358 1353 1350 1347 1352 1362 1366 1392 1424 1482 1548 1569 1579 1588 1598 1597 1594 1597 1599 1596 1595 1599 1625 1662 1696 1732 1782 1828 1850 1851 1852 1855 1857 1861 1861 1856 1842 1838 1842 1846 1844 1842 1843 1833 1831 1842 1855 1858 1855 1833 1816 1813 1804 1807 1806 1806 1815 1818 1816 1815 1827 1823 1811 1794 1781 1771 1770 1781 1795 1801 1794 1790 1787 1787 1788 1789 1786 1774 1763 1757 1748 1741 1731 1716 1719 1721 1712 1710 1713 1706 1699 1686 1698 1691 1682 1675 1676 1675 1675 1679 1682 1688 1698 1694 1693 1689 1684 1685 1686 1687 1686 1687 1674 1633 1602 1566 1506 1337 1327 1340 1364 1368 1342 1331 1329 1295 1276 1228 1152 1085 980 957 858 886 905 950 983 978 1001 1053 1106 1159 1202 1282 1401 1478 1472 1460 1447 1436 1421 1409 1374 1361 1347 1335 1315 1293 1279 1264 1246 1227 1209 1198 1182 1169 1154 1123 1091 1078 1068 1053 1038 1020 1005 986 971 959 948 940 924 911 902 887 869 853 820 804 793 779 764 748 732 711 702 697 687 677 667 660 655 636 620 597 575 550 531 517 505 484 475 473 464 445 424 410 392 372 356 338 323 295 287 284 278 271 263 253 246 235 221 205 190 170 155 144 128 115 104 92 85 78 71 64 55 48 42 37 13 -32768 -32768 -32768 -32768 -32768 -32768 -32768 -32768 -32768 -32768 -32768
1571 1546 1521 1495 1468 1438 1407 1374 1340 1304 1267 1231 1194 1157 1120 1083 1046 1010 975 940 906 873 840 809 523 548 589 650 702 730 759 870 931 986 989 971 1007 1020 1001 966 972 1024 1053 1067 1055 989 920 887 852 824 803 802 817 836 844 859 876 885 883 870 846 829 840 884 905 927 1001 1020 1043 1060 1079 1344 1381 1415 1448 1478 1507 1534 1558 1577 1594 1609 1622 1634 1644 1652 1649 1650 1647 1640 1630 1617 1601 1584 1564 1543 1519 1494 1467 1439 1380 1350 1317 1282 1246 1207 1169 1133 1104 1079 1056 1034 1012 989 968 947 928 913 902 896 892 890 889 890 893 899 909 925 947 972 991 1030 1065 1104 1146 1514 1567 1586 1595 1599 1607 1615 1619 1618 1621 1621 1622 1626 1628 1624 1617 1615 1612 1608 1603 1602 1597 1597 1594 1594 1597 1597 1596 1591 1591 1592 1592 1591 1592 1595 1595 1597 1598 1599 1600 1602 1602 1601 1603 1604 1603 1601 1602 1608 1616 1627 1641 1666 1700 1743 1726 1693 1674 1665 1676 1682 1659 1635 1626 1628 1646 1638 1582 1539 1474 1466 1464 1463 1464 1467 1467 1465 1478 1503 1491 1480 1476 1478 1460 1397 1384 1377 1377 1379 1373 1369 1364 1362 1362 1371 1383 1425 1471 1511 1573 1591 1600 1607 1626 1623 1619 1616 1616 1611 1613 1621 1633 1668 1711 1744 1785 1833 1863 1876 1874 1877 1883 1883 1883 1872 1860 1859 1861 1862 1863 1860 1858 1853 1854 1874 1886 1881 1876 1846 1829 1825 1823 1827 1826 1822 1828 1833 1838 1836 1839 1839 1831 1819 1805 1797 1798 1809 1820 1819 1807 1806 1804 1803 1804 1805 1800 1792 1786 1775 1763 1755 1749 1737 1739 1736 1731 1732 1733 1727 1716 1706 1698 1691 1682 1675 1695 1698 1701 1708 1711 1719 1729 1729 1729 1721 1712 1713 1713 1710 1708 1666 1592 1537 1526 1485 1439 1392 1325 1325 1342 1349 1316 1306 1317 1286 1238 1169 1064 976 923 814 831 882 915 964 994 1027 1064 1118 1162 1219 1269 1352 1496 1496 1489 1473 1465 1451 1437 1425 1395 1381 1366 1352 1337 1320 1302 1288 1271 1252 1238 1224 1208 1193 1166 1139 1118 1101 1085 1068 1053 1032 1017 1002 985 974 963 951 939 930 914 896 874 856 825 811 796 786 776 763 745 732 724 715 706 694 686 675 667 658 646 626 599 570 550 537 522 508 501 491 473 454 434 414 398 379 364 347 334 308 301 296 283 271 263 253 246 235 222 206 194 181 166 150 139 124 111 103 91 80 71 69 60 54 49 43 17 6 -32768 -32768 -32768 -32768 -32768 -32768 -32768 -32768 -32768 -32768
1576 1552 1527 1502 1474 1445 1414 1381 1347 1311 1274 1237 1200 1162 1125 1088 1052 1015 980 944 910 876 843 812 507 563 605 652 694 742 770 868 926 992 996 958 962 970 958 951 952 980 1024 1055 1041 968 900 876 854 828 805 786 796 827 835 843 858 873 869 837 811 809 853 898 936 965 1039 1063 1064 1076 1111 1356 1392 1425 1457 1486 1514 1539 1561 1580 1596 1609 1621 1631 1639 1646 1649 1650 1647 1640 1617 1604 1588 1570 1550 1529 1506 1481 1453 1425 1396 1336 1304 1271 1235 1199 1162 1128 1098 1072 1048 1026 1005 983 963 944 926 911 901 893 889 886 886 888 891 896 907 923 945 970 997 1027 1061 1098 1138 1539 1576 1586 1588 1594 1605 1611 1613 1614 1615 1616 1619 1623 1623 1617 1611 1608 1607 1603 1600 1597 1594 1593 1591 1590 1591 1592 1589 1586 1589 1592 1589 1592 1597 1598 1597 1595 1595 1597 1601 1603 1604 1601 1602 1606 1606 1604 1605 1610 1614 1630 1649 1678 1713 1756 1731 1693 1674 1665 1676 1682 1670 1639 1631 1642 1661 1634 1577 1546 1484 1472 1468 1468 1469 1469 1470 1468 1480 1502 1500 1487 1483 1483 1460 1400 1390 1389 1396 1401 1397 1392 1385 1386 1388 1401 1414 1446 1516 1569 1602 1614 1623 1630 1642 1650 1642 1636 1633 1631 1632 1648 1652 1668 1725 1770 1798 1846 1883 1899 1898 1901 1903 1904 1902 1894 1882 1881 1882 1878 1882 1876 1875 1880 1886 1907 1912 1904 1890 1863 1849 1849 1848 1851 1850 1844 1847 1850 1850 1848 1844 1844 1841 1831 1820 1819 1825 1828 1837 1839 1826 1825 1823 1818 1820 1821 1817 1813 1808 1794 1780 1772 1767 1762 1759 1754 1751 1752 1753 1746 1736 1728 1718 1713 1703 1699 1695 1698 1701 1708 1711 1748 1758 1764 1758 1747 1727 1716 1717 1712 1642 1571 1485 1436 1434 1420 1399 1360 1332 1328 1304 1327 1308 1297 1289 1228 1184 1108 997 903 803 811 836 872 924 978 1025 1079 1138 1201 1252 1304 1356 1427 1506 1517 1502 1487 1477 1464 1452 1439 1419 1404 1385 1371 1354 1339 1325 1312 1294 1277 1263 1243 1229 1211 1181 1163 1147 1125 1100 1082 1067 1048 1030 1014 1001 990 974 966 956 940 919 901 881 861 840 815 803 794 784 773 761 754 746 737 726 713 702 690 682 673 659 641 616 594 575 557 537 526 518 500 482 461 438 417 403 387 372 356 349 327 316 305 292 275 266 260 253 242 222 206 194 181 166 156 142 129 116 108 97 90 80 77 68 58 51 44 19 3 -32768 -32768 -32768 -32768 -32768 -32768 -32768 -32768 -32768 -32768
1583 1559 1535 1509 1482 1453 1422 1389 1354 1318 1281 1243 1205 1167 1130 1093 1056 1020 983 948 912 878 845 533 559 598 630 669 714 783 817 840 928 1013 1000 965 937 928 935 927 939 959 990 1025 1017 944 880 863 848 820 783 758 795 813 812 831 839 845 839 825 807 824 857 900 961 1007 1060 1081 1094 1097 1121 1132 1406 1437 1467 1495 1521 1544 1565 1582 1597 1609 1620 1628 1635 1639 1641 1640 1636 1628 1617 1604 1588 1557 1537 1515 1492 1467 1440 1411 1382 1322 1291 1258 1225 1190 1156 1123 1093 1066 1041 1019 998 978 959 941 925 911 900 892 887 884 884 886 889 895 905 922 943 968 996 1025 1057 1093 1132 1541 1571 1580 1579 1589 1599 1604 1608 1612 1612 1612 1614 1613 1613 1607 1603 1602 1600 1597 1598 1594 1590 1589 1588 1588 1588 1589 1587 1586 1586 1589 1588 1590 1598 1599 1598 1595 1595 1596 1599 1603 1604 1603 1605 1605 1606 1605 1606 1612 1620 1634 1653 1684 1731 1785 1781 1723 1690 1676 1701 1706 1670 1639 1631 1642 1650 1626 1588 1564 1536 1475 1472 1470 1471 1473 1474 1470 1472 1480 1486 1487 1487 1488 1472 1406 1399 1406 1415 1420 1415 1406 1408 1417 1449 1491 1503 1512 1546 1604 1629 1635 1642 1655 1666 1679 1671 1660 1653 1653 1660 1681 1690 1684 1718 1778 1835 1881 1908 1919 1918 1921 1922 1921 1921 1920 1912 1907 1900 1893 1892 1896 1902 1908 1920 1928 1926 1919 1914 1885 1875 1875 1874 1873 1869 1864 1866 1866 1860 1857 1853 1850 1861 1851 1845 1850 1844 1843 1856 1868 1852 1846 1843 1839 1838 1835 1832 1833 1823 1807 1799 1791 1790 1788 1778 1774 1771 1774 1773 1765 1756 1747 1740 1734 1728 1727 1725 1717 1723 1734 1741 1748 1758 1764 1758 1747 1694 1700 1705 1643 1586 1507 1414 1406 1391 1375 1360 1340 1340 1332 1323 1316 1295 1273 1247 1207 1150 1070 952 829 813 813 850 889 930 1000 1058 1120 1220 1288 1358 1423 1470 1518 1531 1524 1515 1502 1489 1480 1467 1457 1447 1419 1407 1391 1373 1360 1344 1327 1306 1293 1276 1260 1245 1223 1204 1187 1164 1134 1105 1090 1077 1063 1047 1028 1013 1004 990 978 963 948 931 918 899 871 847 824 813 805 795 786 780 771 762 752 745 731 719 709 698 684 667 648 630 617 596 575 557 544 527 511 496 467 447 426 409 394 378 366 357 332 321 307 298 284 275 269 260 246 231 215 200 189 175 156 142 129 116 110 102 96 91 81 75 65 54 42 15 -32768 -32768 -32768 -32768 -32768 -32768 -32768 -32768 -32768 -32768 -32768
1591 1568 1543 1517 1490 1460 1429 1396 1361 1325 1287 1248 1210 1172 1134 1097 1060 1023 986 949 914 879 487 542 572 617 657 706 773 812 843 876 953 1015 998 973 938 912 920 916 942 957 976 1000 986 911 845 829 808 773 742 731 745 780 783 806 815 801 795 795 810 840 861 907 971 1028 1069 1103 1130 1140 1149 1156 1422 1452 1479 1505 1529 1550 1569 1585 1599 1610 1619 1626 1630 1633 1633 1631 1625 1616 1605 1591 1575 1557 1537 1515 1492 1453 1426 1398 1368 1308 1277 1246 1213 1181 1148 1116 1087 1059 1035 1012 991 972 954 938 923 910 899 891 886 883 883 884 887 893 904 920 941 966 994 1024 1055 1090 1128 1526 1559 1571 1572 1579 1589 1596 1602 1606 1608 1609 1608 1604 1601 1597 1596 1596 1595 1593 1594 1592 1590 1589 1591 1590 1587 1586 1584 1583 1581 1583 1583 1589 1594 1597 1600 1598 1598 1599 1597 1599 1602 1605 1604 1604 1606 1607 1607 1613 1628 1649 1671 1695 1756 1805 1817 1767 1730 1714 1724 1704 1674 1650 1643 1652 1650 1626 1588 1564 1520 1484 1479 1474 1473 1473 1474 1473 1477 1482 1486 1491 1494 1495 1470 1413 1410 1418 1428 1436 1435 1426 1429 1444 1478 1547 1600 1612 1603 1633 1648 1656 1665 1678 1692 1711 1706 1698 1689 1686 1696 1719 1739 1721 1717 1765 1827 1906 1930 1939 1939 1942 1940 1941 1937 1937 1934 1923 1914 1908 1909 1916 1925 1934 1953 1948 1942 1939 1936 1937 1901 1901 1896 1892 1885 1884 1885 1882 1876 1870 1865 1873 1900 1884 1871 1875 1867 1863 1867 1885 1876 1863 1857 1857 1854 1848 1841 1845 1834 1824 1815 1808 1812 1809 1804 1795 1794 1793 1791 1780 1775 1769 1763 1753 1752 1750 1749 1743 1745 1757 1766 1776 1788 1794 1782 1740 1694 1700 1705 1643 1547 1481 1424 1399 1371 1346 1340 1326 1338 1376 1352 1324 1295 1275 1235 1195 1139 1011 932 890 862 863 887 921 961 1021 1096 1191 1298 1392 1458 1530 1551 1544 1534 1524 1521 1512 1503 1493 1477 1468 1458 1436 1424 1406 1391 1374 1355 1340 1323 1310 1293 1276 1258 1240 1222 1198 1164 1147 1125 1108 1091 1078 1065 1043 1025 1014 997 985 969 960 953 952 926 880 860 832 825 816 811 804 794 786 778 768 763 753 740 730 710 687 669 658 650 635 615 603 585 566 546 528 502 481 462 442 419 401 385 374 366 350 321 307 298 292 286 273 262 249 237 223 205 189 176 160 145 133 123 110 102 96 91 81 81 68 51 33 16 6 -32768 -32768 -32768 -32768 -32768 -32768 -32768 -32768 -32768 -32768
1599 1576 1552 1526 1498 1468 1436 1403 1368 1331 1293 1253 1215 1176 1138 1101 1063 1025 987 949 913 878 484 532 593 649 692 719 759 806 847 890 939 973 985 959 926 899 901 899 933 959 968 980 957 866 783 762 740 705 684 691 701 697 725 753 763 752 782 810 837 870 897 939 989 1051 1093 1145 1166 1180 1189 1208 1440 1467 1493 1516 1537 1557 1574 1588 1600 1610 1618 1623 1626 1627 1626 1621 1615 1605 1593 1578 1561 1543 1523 1501 1478 1453 1426 1398 1368 1324 1263 1232 1201 1169 1138 1108 1079 1052 1027 1005 984 966 949 934 920 908 898 890 885 882 881 882 885 891 901 917 938 964 992 1022 1054 1090 1510 1522 1551 1561 1567 1571 1577 1585 1590 1593 1598 1602 1600 1599 1595 1593 1592 1591 1589 1589 1590 1589 1588 1589 1592 1592 1589 1587 1586 1584 1584 1582 1582 1584 1592 1597 1599 1602 1601 1599 1598 1600 1604 1606 1606 1606 1607 1609 1613 1616 1624 1645 1661 1687 1729 1762 1788 1785 1763 1741 1728 1695 1675 1672 1659 1648 1627 1600 1582 1563 1520 1484 1479 1478 1476 1475 1479 1478 1482 1489 1500 1506 1508 1517 1489 1421 1423 1437 1451 1456 1460 1460 1466 1475 1507 1609 1657 1658 1626 1639 1661 1672 1684 1697 1710 1729 1738 1735 1729 1736 1748 1776 1794 1778 1734 1746 1797 1864 1943 1951 1954 1954 1956 1957 1958 1953 1946 1938 1926 1920 1924 1927 1937 1952 1974 1977 1970 1966 1964 1957 1925 1923 1918 1915 1907 1903 1903 1900 1890 1887 1887 1897 1916 1918 1896 1892 1889 1877 1875 1873 1873 1867 1867 1865 1863 1872 1866 1853 1845 1835 1828 1825 1831 1831 1825 1817 1817 1814 1802 1800 1794 1792 1790 1777 1774 1775 1774 1770 1770 1780 1791 1797 1806 1809 1756 1677 1681 1685 1691 1597 1547 1481 1424 1399 1371 1332 1326 1313 1424 1420 1383 1357 1318 1280 1214 1178 1132 1073 1009 974 939 946 953 970 1011 1064 1151 1279 1355 1470 1552 1564 1555 1542 1537 1529 1526 1518 1515 1502 1490 1479 1471 1450 1440 1422 1404 1385 1372 1356 1344 1328 1311 1290 1270 1252 1231 1209 1184 1167 1151 1130 1109 1089 1068 1047 1027 1014 1001 994 985 975 963 944 925 898 873 844 838 828 822 815 805 799 791 780 776 774 763 747 719 691 677 671 662 647 634 619 602 587 565 544 519 494 471 448 423 406 390 381 371 356 326 317 311 299 287 276 263 255 245 229 212 202 185 168 152 140 130 118 108 99 94 89 81 68 51 33 24 6 -32768 -32768 -32768 -32768 -32768 -32768 -32768 -32768 -32768 -32768
1607 1585 1561 1534 1505 1474 1442 1409 1373 1336 1297 1258 1219 1180 1142 1104 1065 1025 986 947 910 466 478 529 588 657 684 710 749 811 866 899 900 896 932 957 916 898 874 878 903 920 929 936 901 803 714 688 677 664 655 666 670 674 686 702 719 740 776 821 848 889 920 953 999 1061 1118 1166 1193 1219 1234 1259 1459 1484 1507 1528 1547 1564 1579 1592 1603 1611 1618 1622 1623 1622 1619 1613 1605 1594 1581 1565 1548 1529 1509 1487 1464 1439 1413 1384 1355 1324 1263 1232 1201 1157 1127 1098 1070 1044 1019 997 977 959 943 929 916 905 896 889 885 882 881 881 883 888 898 913 934 960 989 1020 1054 1091 1496 1516 1547 1554 1561 1565 1567 1576 1582 1585 1591 1591 1590 1590 1587 1587 1589 1587 1587 1587 1586 1585 1588 1588 1589 1589 1588 1589 1586 1584 1582 1584 1582 1583 1588 1594 1601 1602 1602 1602 1601 1601 1604 1607 1608 1609 1611 1615 1629 1639 1632 1638 1655 1677 1697 1711 1724 1731 1723 1707 1694 1695 1685 1673 1655 1646 1636 1602 1580 1556 1538 1522 1487 1478 1476 1475 1479 1488 1494 1501 1511 1520 1528 1538 1507 1442 1434 1468 1478 1484 1490 1516 1538 1544 1592 1655 1698 1681 1665 1664 1674 1685 1699 1711 1728 1749 1767 1764 1775 1804 1824 1849 1857 1856 1832 1782 1778 1808 1951 1969 1966 1970 1973 1973 1977 1971 1964 1953 1940 1939 1939 1943 1947 1958 1986 2000 1995 1995 1997 1984 1945 1937 1929 1929 1922 1921 1920 1914 1907 1904 1901 1909 1917 1922 1919 1908 1897 1889 1889 1886 1881 1880 1880 1875 1871 1879 1871 1855 1849 1845 1845 1844 1848 1850 1848 1836 1832 1826 1822 1819 1813 1813 1813 1799 1796 1800 1807 1799 1794 1803 1781 1760 1768 1780 1741 1698 1683 1683 1604 1562 1523 1475 1433 1411 1365 1332 1326 1313 1424 1420 1425 1396 1369 1315 1254 1237 1206 1160 1094 992 994 985 1007 1039 1077 1146 1235 1329 1451 1546 1579 1570 1562 1552 1545 1541 1534 1527 1522 1510 1498 1489 1481 1465 1453 1435 1416 1400 1389 1370 1353 1336 1323 1304 1281 1262 1243 1225 1206 1183 1161 1139 1118 1093 1073 1051 1030 1016 1006 1003 996 987 968 948 934 914 889 869 851 842 834 825 817 810 800 792 784 784 774 745 721 700 691 686 674 659 645 632 614 594 578 557 529 498 469 447 430 415 398 383 371 359 336 324 314 304 295 283 271 258 245 235 222 209 192 174 156 142 132 120 110 103 101 100 89 68 52 32 24 6 -32768 -32768 -32768 -32768 -32768 -32768 -32768 -32768 -32768 -32768
1607 1585 1570 1542 1512 1480 1447 1413 1377 1339 1300 1261 1222 1184 1146 1107 1066 1025 983 943 475 463 474 542 601 662 678 709 744 799 831 862 855 850 872 888 890 888 872 858 867 877 873 849 793 719 667 644 637 662 677 693 713 737 740 734 738 770 809 833 860 900 927 955 996 1055 1109 1159 1209 1226 1255 1283 1477 1500 1521 1540 1557 1572 1585 1596 1606 1613 1618 1620 1620 1618 1613 1605 1596 1584 1570 1553 1535 1516 1495 1473 1450 1425 1399 1371 1341 1310 1249 1218 1187 1157 1127 1098 1059 1034 1010 988 969 952 937 924 912 902 894 888 884 882 880 880 881 885 894 909 930 956 986 1019 1055 1445 1485 1512 1527 1544 1550 1554 1558 1563 1567 1577 1584 1580 1579 1578 1580 1584 1584 1583 1584 1586 1584 1586 1588 1592 1591 1592 1591 1591 1585 1583 1582 1582 1582 1583 1587 1591 1600 1601 1603 1604 1603 1605 1607 1609 1613 1611 1613 1619 1634 1643 1639 1637 1648 1660 1673 1681 1684 1686 1687 1681 1675 1674 1673 1670 1665 1659 1650 1609 1577 1560 1549 1527 1491 1487 1481 1481 1482 1488 1494 1501 1511 1536 1555 1574 1542 1477 1453 1486 1522 1516 1517 1548 1607 1643 1670 1717 1733 1700 1683 1679 1684 1697 1711 1723 1738 1759 1786 1787 1796 1848 1890 1922 1927 1927 1910 1868 1847 1867 1959 1982 1984 1984 1989 1988 1991 1993 1981 1977 1970 1965 1960 1967 1967 1965 1983 2008 2018 2021 2020 2012 1988 1955 1946 1941 1937 1937 1937 1930 1924 1917 1915 1922 1927 1924 1920 1914 1907 1901 1904 1903 1896 1902 1906 1897 1885 1872 1865 1861 1860 1866 1867 1863 1866 1869 1866 1858 1849 1840 1837 1838 1837 1837 1830 1824 1821 1825 1830 1825 1809 1751 1685 1643 1626 1626 1611 1597 1693 1627 1569 1540 1505 1468 1439 1419 1363 1325 1454 1454 1478 1447 1425 1396 1369 1315 1344 1295 1296 1261 1228 1180 1144 1125 1102 1173 1194 1252 1305 1398 1507 1584 1579 1572 1567 1560 1553 1552 1547 1537 1531 1521 1512 1502 1492 1477 1453 1437 1421 1405 1393 1377 1361 1344 1329 1311 1291 1274 1254 1240 1217 1198 1182 1157 1136 1113 1086 1065 1047 1027 1013 1009 999 989 977 962 950 938 918 899 866 856 846 838 828 816 805 796 786 773 762 740 727 716 706 693 682 667 655 635 616 595 582 558 530 504 478 457 437 420 406 392 378 366 340 327 316 307 302 288 276 264 250 235 221 209 193 180 161 146 138 125 111 106 108 111 100 74 58 41 41 19 7 -32768 -32768 -32768 -32768 -32768 -32768 -32768 -32768 -32768
1614 1594 1570 1542 1512 1480 1450 1416 1380 1342 1302 1263 1225 1187 1149 1109 1067 1024 980 543 502 466 471 536 592 638 692 744 775 808 849 838 818 823 839 853 837 845 847 836 837 849 823 759 685 648 653 641 616 646 678 731 762 809 812 804 801 813 853 863 866 882 921 949 985 1045 1086 1127 1170 1199 1243 1287 1495 1516 1535 1552 1567 1580 1592 1601 1609 1615 1618 1619 1617 1613 1607 1598 1587 1574 1559 1542 1523 1503 1482 1459 1436 1411 1385 1357 1327 1296 1265 1203 1173 1143 1114 1086 1059 1034 1010 988 961 945 931 918 908 899 892 887 884 882 881 880 880 884 891 905 927 954 985 1019 1056 1456 1495 1512 1521 1533 1540 1542 1548 1542 1540 1559 1569 1573 1574 1574 1576 1575 1578 1580 1580 1583 1585 1587 1590 1589 1591 1592 1595 1593 1591 1586 1584 1586 1584 1589 1590 1591 1598 1600 1602 1603 1604 1606 1608 1612 1616 1614 1615 1622 1629 1640 1640 1638 1643 1653 1662 1669 1675 1677 1680 1683 1682 1678 1677 1681 1684 1681 1667 1628 1599 1575 1560 1533 1504 1497 1493 1492 1493 1499 1509 1513 1520 1536 1555 1574 1542 1526 1479 1488 1558 1569 1558 1571 1642 1709 1745 1786 1783 1741 1703 1694 1699 1707 1720 1742 1754 1775 1797 1818 1817 1860 1923 1955 1965 1970 1969 1964 1956 1966 1990 2000 2000 2000 2003 2006 2005 2008 2005 2013 2011 1995 1984 1987 1987 1984 1989 2005 2024 2036 2033 2020 2000 1969 1958 1956 1954 1953 1953 1946 1937 1933 1931 1936 1938 1935 1932 1929 1917 1912 1916 1917 1913 1918 1924 1913 1896 1884 1879 1871 1876 1888 1892 1882 1885 1890 1888 1877 1868 1858 1860 1858 1857 1861 1853 1850 1852 1855 1852 1812 1729 1653 1570 1511 1506 1531 1534 1558 1567 1580 1554 1522 1496 1466 1440 1422 1384 1495 1509 1511 1539 1520 1468 1444 1426 1386 1344 1295 1296 1261 1228 1361 1314 1297 1349 1299 1331 1371 1409 1482 1568 1591 1582 1577 1574 1566 1563 1562 1555 1549 1543 1533 1523 1510 1495 1484 1454 1441 1426 1411 1401 1391 1372 1352 1335 1318 1295 1282 1266 1249 1233 1216 1198 1178 1157 1132 1101 1078 1062 1041 1025 1014 1003 994 986 975 968 954 942 926 885 869 859 849 835 821 808 800 788 771 758 744 733 726 711 697 684 668 653 632 616 601 582 557 544 515 490 466 441 427 415 407 391 371 355 333 325 313 304 291 282 270 258 240 226 209 196 184 166 157 145 129 114 109 123 139 124 89 59 47 41 30 7 -32768 -32768 -32768 -32768 -32768 -32768 -32768 -32768 -32768
1621 1601 1577 1548 1517 1484 1450 1416 1380 1343 1304 1265 1227 1190 1152 1112 1068 1023 566 544 509 466 461 503 563 615 690 741 782 797 816 828 781 769 800 819 797 800 809 826 822 806 769 704 637 610 634 653 632 650 703 747 779 816 849 854 859 881 906 916 907 892 906 937 982 1024 1060 1092 1158 1184 1468 1491 1513 1532 1549 1564 1577 1589 1598 1606 1613 1617 1619 1618 1615 1609 1601 1591 1579 1564 1548 1530 1511 1490 1468 1446 1422 1397 1371 1343 1313 1282 1251 1188 1158 1129 1100 1073 1047 1023 1000 979 961 945 931 918 904 896 891 887 885 884 884 883 882 884 890 903 979 991 985 1020 1059 1452 1499 1509 1516 1531 1538 1539 1514 1487 1472 1481 1532 1567 1567 1566 1569 1571 1573 1575 1578 1581 1584 1588 1594 1596 1596 1595 1594 1594 1594 1590 1587 1588 1590 1590 1591 1594 1594 1597 1602 1604 1605 1608 1609 1612 1615 1614 1616 1628 1632 1640 1643 1640 1642 1650 1660 1674 1684 1686 1688 1688 1686 1683 1688 1691 1697 1697 1692 1676 1652 1633 1604 1571 1530 1519 1515 1509 1505 1510 1524 1534 1547 1560 1586 1616 1601 1526 1479 1488 1558 1569 1595 1600 1653 1735 1805 1843 1832 1789 1735 1716 1718 1727 1739 1757 1773 1787 1810 1846 1846 1878 1944 1971 1980 1987 1989 1993 1997 1998 2003 2011 2013 2011 2018 2020 2018 2024 2029 2042 2041 2022 2006 2006 2006 2010 2018 2023 2023 2022 2018 2013 2008 1984 1976 1973 1977 1975 1970 1963 1957 1951 1947 1950 1953 1948 1944 1944 1933 1927 1929 1925 1924 1927 1937 1926 1911 1901 1898 1894 1893 1903 1904 1898 1904 1913 1916 1906 1882 1882 1885 1879 1879 1881 1874 1871 1880 1876 1819 1720 1628 1563 1516 1400 1392 1405 1482 1510 1536 1550 1527 1516 1486 1464 1444 1502 1515 1539 1557 1648 1593 1584 1530 1513 1491 1473 1422 1384 1355 1361 1384 1361 1314 1297 1349 1447 1453 1488 1537 1580 1599 1596 1589 1585 1579 1574 1569 1566 1564 1558 1549 1537 1523 1512 1498 1488 1460 1443 1429 1417 1410 1399 1379 1356 1342 1325 1311 1299 1279 1260 1244 1228 1211 1192 1170 1141 1109 1094 1080 1063 1043 1024 1012 1005 996 985 974 962 951 934 917 883 870 852 837 826 814 805 790 777 766 755 743 732 718 705 689 669 653 631 612 598 597 605 582 541 507 483 460 443 427 412 395 377 361 343 335 325 311 299 286 275 261 248 233 218 202 186 169 157 143 128 114 128 157 171 142 90 53 46 37 33 9 -32768 -32768 -32768 -32768 -32768 -32768 -32768 -32768 -32768
1627 1607 1581 1551 1519 1486 1452 1417 1381 1343 1304 1265 1227 1192 1154 1114 1070 577 587 540 502 469 462 505 562 610 656 712 761 766 784 805 774 750 759 776 767 765 772 787 779 741 701 659 617 588 600 647 688 680 694 720 747 776 823 882 910 930 949 958 943 923 910 929 989 1026 1061 1088 1146 1464 1488 1510 1530 1547 1563 1576 1588 1597 1605 1612 1616 1619 1619 1617 1613 1605 1596 1584 1571 1555 1538 1519 1499 1477 1455 1432 1408 1383 1356 1328 1298 1267 1236 1173 1143 1114 1086 1059 1034 1011 989 970 952 937 925 913 904 896 891 888 887 888 888 888 887 889 894 829 917 988 990 1024 1062 1415 1476 1511 1519 1522 1492 1476 1443 1414 1387 1381 1444 1517 1555 1559 1566 1570 1570 1574 1577 1579 1584 1591 1601 1602 1601 1596 1594 1592 1593 1593 1590 1588 1590 1590 1590 1593 1593 1598 1603 1604 1607 1611 1615 1614 1616 1621 1626 1633 1634 1638 1641 1641 1640 1654 1668 1679 1685 1687 1691 1690 1690 1690 1695 1698 1704 1705 1711 1710 1698 1686 1654 1610 1597 1571 1550 1539 1531 1541 1551 1560 1582 1600 1625 1655 1658 1569 1517 1494 1535 1590 1595 1600 1653 1735 1805 1874 1871 1832 1789 1759 1756 1757 1767 1779 1788 1796 1815 1857 1872 1894 1946 1989 1999 2006 2009 2013 2012 2012 2013 2019 2025 2024 2028 2030 2034 2038 2047 2059 2060 2051 2036 2027 2023 2027 2032 2035 2033 2031 2027 2023 2018 2003 1993 1990 1993 1992 1987 1983 1977 1972 1966 1968 1974 1972 1963 1962 1951 1950 1947 1936 1937 1939 1940 1936 1926 1925 1923 1917 1910 1912 1919 1919 1925 1934 1933 1923 1900 1901 1900 1895 1894 1902 1899 1899 1905 1861 1748 1650 1575 1527 1451 1374 1346 1373 1415 1482 1512 1527 1545 1515 1508 1463 1516 1535 1551 1568 1655 1652 1651 1643 1583 1561 1567 1560 1541 1497 1468 1441 1427 1432 1449 1455 1462 1447 1453 1488 1537 1580 1611 1599 1593 1588 1585 1579 1574 1569 1566 1557 1548 1536 1524 1510 1499 1489 1461 1445 1437 1429 1417 1402 1387 1365 1353 1334 1320 1305 1283 1264 1247 1233 1226 1210 1178 1155 1132 1111 1098 1081 1060 1041 1027 1016 1006 995 981 970 957 942 926 892 874 858 841 828 819 808 799 787 771 760 748 736 724 713 696 680 660 638 616 607 614 601 573 532 503 487 463 444 432 417 402 389 373 351 340 328 312 301 287 273 262 253 235 222 205 189 168 155 139 119 117 141 160 149 112 69 54 49 40 34 22 -32768 -32768 -32768 -32768 -32768 -32768 -32768 -32768 -32768
1630 1609 1582 1551 1518 1485 1451 1416 1380 1342 1304 1266 1229 1192 1154 1114 1070 563 558 536 494 464 460 563 614 631 657 724 743 736 757 775 762 723 715 726 720 740 766 754 717 672 648 633 615 592 593 652 730 755 746 750 773 790 824 881 932 942 959 959 956 942 938 931 969 1017 1054 1388 1424 1484 1507 1528 1546 1562 1576 1588 1598 1606 1612 1617 1621 1622 1620 1617 1610 1602 1590 1577 1563 1546 1528 1508 1487 1464 1441 1418 1393 1368 1341 1312 1282 1251 1220 1189 1128 1099 1071 1045 1021 999 979 960 944 930 919 909 901 895 890 888 887 888 888 896 897 900 752 792 886 958 999 1031 1067 1340 1409 1482 1473 1488 1440 1392 1376 1347 1305 1335 1368 1441 1524 1553 1564 1577 1579 1576 1579 1585 1587 1595 1602 1602 1599 1594 1590 1587 1587 1587 1587 1589 1590 1590 1591 1593 1593 1598 1605 1604 1607 1610 1614 1621 1625 1628 1632 1635 1635 1638 1641 1642 1646 1664 1672 1675 1683 1686 1687 1688 1687 1692 1699 1709 1714 1721 1729 1729 1723 1709 1687 1673 1664 1634 1620 1604 1603 1609 1610 1608 1623 1649 1671 1694 1705 1707 1573 1554 1559 1592 1626 1662 1709 1789 1851 1874 1871 1832 1789 1825 1813 1803 1811 1810 1800 1812 1828 1862 1879 1909 1957 2004 2019 2023 2029 2030 2028 2031 2027 2029 2037 2037 2041 2047 2051 2053 2062 2073 2075 2075 2066 2050 2040 2048 2050 2052 2050 2047 2044 2041 2033 2024 2012 2007 2008 2006 2005 2002 1997 1994 1988 1990 1997 1994 1988 1980 1974 1972 1968 1957 1954 1952 1951 1951 1947 1947 1944 1938 1932 1934 1941 1947 1950 1953 1947 1934 1918 1921 1920 1921 1913 1921 1924 1923 1889 1779 1691 1593 1527 1490 1430 1423 1419 1417 1453 1473 1490 1500 1534 1524 1524 1536 1547 1564 1615 1684 1666 1661 1659 1656 1635 1600 1651 1656 1657 1629 1597 1569 1562 1572 1590 1577 1582 1587 1597 1611 1619 1618 1611 1599 1593 1588 1585 1583 1577 1570 1564 1556 1550 1538 1522 1508 1498 1490 1478 1452 1443 1433 1423 1410 1396 1380 1365 1345 1329 1312 1292 1271 1254 1240 1231 1207 1187 1171 1149 1130 1116 1097 1078 1060 1044 1031 1018 1001 988 973 956 943 929 889 874 857 843 825 815 806 798 785 769 760 748 737 725 713 701 687 666 642 622 609 601 588 570 531 495 477 458 439 430 419 406 393 375 353 341 328 312 298 286 273 263 253 234 217 201 186 165 153 139 125 122 134 131 102 72 56 52 51 37 34 32 14 -32768 -32768 -32768 -32768 -32768 -32768 -32768 -32768
1799 1605 1577 1546 1514 1480 1447 1412 1377 1340 1303 1266 1230 1194 1157 1117 1074 563 558 536 487 460 468 573 616 655 676 723 732 726 749 760 730 690 666 689 684 692 710 691 642 606 608 606 590 577 614 667 765 801 818 816 825 829 846 912 935 945 954 954 957 959 959 960 943 1332 1370 1407 1443 1502 1524 1544 1561 1576 1589 1600 1608 1615 1620 1623 1625 1624 1621 1616 1608 1597 1585 1571 1554 1537 1518 1497 1475 1451 1428 1403 1378 1352 1324 1295 1265 1234 1203 1172 1112 1084 1057 1031 1008 986 968 951 936 924 914 906 899 894 891 890 891 893 895 896 897 900 752 777 849 932 1011 1041 1073 1273 1313 1347 1356 1377 1368 1341 1321 1331 1348 1372 1421 1482 1546 1556 1573 1587 1583 1577 1583 1588 1590 1597 1601 1600 1595 1589 1590 1585 1585 1585 1586 1588 1589 1590 1595 1594 1596 1601 1605 1610 1611 1613 1619 1623 1624 1627 1632 1639 1641 1641 1643 1643 1651 1673 1686 1675 1681 1685 1683 1683 1686 1688 1700 1717 1730 1743 1750 1756 1753 1747 1740 1740 1730 1695 1697 1675 1662 1675 1674 1671 1692 1712 1731 1746 1753 1700 1608 1645 1670 1686 1705 1734 1781 1839 1889 1897 1891 1874 1852 1825 1813 1803 1811 1810 1828 1830 1848 1862 1896 1918 1959 2015 2040 2044 2047 2047 2045 2044 2041 2040 2047 2051 2050 2056 2063 2063 2076 2086 2089 2088 2089 2071 2058 2067 2068 2070 2066 2062 2061 2053 2043 2037 2030 2023 2020 2020 2019 2018 2018 2018 2010 2010 2015 2014 2007 1997 1995 1991 1983 1972 1971 1972 1972 1973 1971 1968 1965 1959 1952 1951 1952 1966 1974 1975 1964 1944 1937 1943 1943 1942 1936 1942 1947 1914 1793 1710 1646 1570 1505 1490 1494 1524 1474 1489 1503 1519 1528 1536 1543 1548 1553 1563 1570 1609 1622 1686 1685 1683 1682 1670 1672 1669 1675 1672 1671 1669 1668 1664 1658 1656 1654 1648 1644 1640 1636 1629 1624 1619 1610 1605 1599 1594 1591 1583 1577 1570 1564 1560 1552 1541 1524 1506 1496 1490 1480 1457 1446 1440 1432 1416 1403 1386 1371 1350 1334 1315 1292 1273 1259 1242 1230 1213 1197 1180 1161 1145 1125 1105 1085 1071 1059 1042 1027 1010 993 978 960 944 927 883 867 853 840 826 814 805 802 800 784 764 753 744 734 722 710 691 669 645 623 603 585 570 545 515 488 472 456 440 432 423 412 398 380 367 341 326 305 294 281 269 259 248 231 214 199 181 165 147 141 126 118 121 114 83 61 57 50 45 38 34 27 19 -32768 -32768 -32768 -32768 -32768 -32768 -32768 -32768
1784 1777 1564 1535 1504 1473 1440 1406 1372 1337 1301 1265 1231 1196 1160 1121 1079 524 517 505 487 460 468 573 590 647 699 715 715 709 722 716 697 679 646 610 633 637 629 603 566 548 564 566 566 574 611 675 761 813 862 884 863 876 900 923 942 948 947 956 958 959 964 1279 1316 1354 1390 1426 1461 1492 1541 1560 1576 1590 1602 1611 1619 1624 1628 1629 1629 1627 1622 1615 1605 1593 1579 1564 1546 1528 1507 1485 1462 1438 1413 1388 1362 1335 1307 1277 1247 1216 1186 1155 1096 1068 1041 1017 994 974 956 941 928 918 910 904 899 895 894 894 896 899 903 907 910 739 748 777 849 932 1011 1053 1082 1113 1115 1195 1242 1269 1286 1293 1312 1338 1411 1437 1490 1536 1545 1552 1573 1586 1580 1578 1585 1586 1585 1589 1593 1591 1591 1588 1589 1587 1589 1589 1589 1589 1590 1591 1595 1597 1601 1608 1609 1612 1614 1615 1619 1622 1625 1629 1635 1643 1646 1647 1652 1650 1655 1671 1692 1692 1684 1682 1682 1682 1685 1689 1700 1719 1743 1762 1775 1780 1789 1785 1773 1767 1761 1754 1755 1738 1710 1710 1737 1746 1761 1784 1788 1785 1775 1734 1693 1730 1759 1773 1784 1807 1852 1892 1915 1919 1915 1921 1913 1891 1864 1852 1860 1855 1828 1830 1848 1862 1914 1934 1968 2022 2057 2064 2062 2063 2060 2055 2049 2052 2057 2061 2060 2064 2073 2082 2086 2087 2101 2115 2119 2100 2083 2083 2084 2088 2080 2078 2075 2066 2061 2057 2050 2038 2035 2035 2035 2037 2034 2032 2026 2028 2028 2025 2021 2018 2005 1998 1995 1989 1989 1994 1994 1993 1992 1993 1990 1983 1974 1972 1972 1975 1991 1989 1972 1958 1957 1963 1965 1967 1964 1966 1941 1843 1726 1643 1607 1566 1527 1534 1574 1604 1582 1572 1576 1575 1578 1576 1573 1574 1566 1599 1610 1616 1691 1689 1687 1686 1683 1682 1686 1678 1678 1675 1675 1672 1671 1670 1667 1661 1655 1653 1651 1646 1642 1632 1627 1620 1614 1608 1603 1598 1591 1587 1581 1573 1565 1560 1552 1541 1524 1506 1505 1496 1486 1464 1455 1448 1438 1420 1406 1390 1374 1354 1335 1316 1294 1275 1263 1247 1233 1217 1201 1183 1165 1149 1131 1110 1091 1076 1061 1051 1040 1023 1002 979 963 945 923 904 863 847 834 825 819 812 821 838 821 786 790 776 749 727 706 690 668 644 618 598 576 553 535 511 489 476 454 441 430 422 413 400 383 370 338 324 311 297 282 269 256 247 231 213 199 184 166 151 137 125 105 78 71 65 54 51 49 43 37 31 23 20 12 -32768 -32768 -32768 -32768 -32768 -32768 -32768
1758 1732 1545 1520 1492 1462 1431 1399 1365 1332 1298 1264 1230 1197 1162 1125 466 470 477 480 472 454 457 546 590 647 699 715 685 690 689 687 667 666 644 587 582 587 574 554 538 531 541 559 592 628 649 693 753 828 905 960 949 964 964 941 948 954 952 958 955 955 1266 1303 1339 1375 1410 1445 1478 1508 1556 1575 1591 1604 1614 1622 1628 1633 1635 1635 1633 1629 1622 1613 1602 1588 1573 1556 1538 1518 1497 1474 1450 1425 1399 1373 1346 1318 1289 1259 1229 1198 1168 1138 1108 1051 1025 1001 979 960 944 931 920 912 906 902 899 898 898 899 903 907 913 919 734 745 776 792 810 1001 1026 1053 1082 1113 1061 1079 1136 1179 1209 1273 1314 1371 1412 1492 1535 1544 1547 1551 1560 1570 1571 1575 1578 1577 1580 1584 1589 1588 1591 1590 1590 1590 1593 1593 1593 1592 1590 1592 1597 1598 1602 1610 1612 1615 1616 1619 1622 1625 1627 1634 1637 1640 1644 1651 1656 1653 1653 1665 1675 1680 1677 1679 1679 1679 1685 1693 1702 1715 1741 1785 1806 1801 1802 1810 1798 1783 1775 1775 1790 1782 1772 1755 1777 1797 1815 1831 1828 1824 1811 1784 1779 1809 1842 1858 1874 1895 1923 1937 1945 1949 1947 1945 1951 1944 1915 1897 1901 1899 1880 1856 1864 1878 1914 1934 1968 2022 2057 2087 2089 2081 2074 2070 2060 2058 2061 2068 2073 2073 2081 2092 2098 2094 2105 2133 2145 2125 2108 2095 2095 2097 2098 2093 2087 2083 2081 2073 2073 2049 2043 2045 2047 2050 2046 2040 2039 2042 2045 2045 2038 2028 2014 2017 2013 2006 2008 2007 2005 2006 2006 2011 2009 2000 1998 1996 1994 1992 1997 1990 1978 1977 1975 1984 1984 1991 1992 1974 1894 1799 1658 1603 1597 1574 1557 1568 1631 1677 1660 1646 1643 1630 1635 1616 1601 1592 1588 1618 1610 1624 1690 1690 1689 1687 1684 1681 1682 1681 1680 1679 1682 1680 1676 1672 1667 1662 1658 1656 1652 1649 1644 1638 1634 1626 1620 1612 1605 1601 1596 1592 1586 1578 1573 1564 1553 1545 1534 1517 1505 1496 1486 1476 1455 1455 1440 1424 1411 1393 1376 1358 1336 1315 1295 1281 1268 1252 1235 1216 1204 1188 1169 1153 1133 1114 1096 1082 1070 1060 1047 1026 1006 981 963 946 924 903 866 849 832 821 818 815 831 836 817 797 798 783 754 724 705 689 669 642 620 597 573 550 529 507 484 467 452 442 431 424 410 399 387 368 337 325 314 303 288 272 261 243 225 214 202 188 173 154 140 122 65 24 30 40 45 46 43 41 41 33 23 19 10 -32768 -32768 -32768 -32768 -32768 -32768 -32768
1718 1695 1665 1501 1476 1449 1420 1389 1357 1326 1294 1261 1229 1196 1163 467 455 446 455 450 448 443 462 537 588 641 682 681 685 690 689 687 626 618 615 616 544 542 535 529 545 584 596 605 681 731 730 739 756 803 877 925 941 1017 983 977 952 948 944 948 1219 1257 1293 1328 1362 1396 1430 1464 1496 1525 1572 1590 1605 1616 1626 1633 1637 1640 1641 1640 1636 1630 1621 1611 1598 1583 1567 1549 1530 1509 1486 1462 1437 1411 1385 1358 1330 1301 1272 1242 1211 1180 1150 1119 1090 1034 1008 985 964 947 932 921 912 906 902 643 657 725 903 906 911 917 924 932 720 744 754 759 763 778 798 809 884 997 1061 1079 1136 1179 1135 1264 1341 1398 1450 1524 1528 1543 1549 1554 1558 1563 1568 1571 1572 1575 1576 1583 1589 1586 1587 1588 1589 1592 1594 1595 1597 1595 1594 1594 1595 1601 1606 1612 1617 1617 1619 1620 1621 1625 1630 1636 1641 1641 1646 1651 1656 1658 1661 1667 1674 1675 1676 1677 1679 1682 1689 1695 1704 1718 1754 1813 1841 1830 1816 1813 1809 1795 1786 1792 1809 1808 1808 1807 1814 1821 1835 1854 1852 1852 1847 1842 1845 1862 1880 1904 1925 1933 1952 1964 1970 1971 1978 1981 1978 1974 1962 1949 1943 1935 1933 1915 1898 1900 1919 1961 1987 2035 2072 2087 2089 2081 2074 2070 2075 2067 2066 2073 2083 2090 2097 2105 2115 2120 2117 2129 2144 2139 2122 2103 2103 2109 2116 2108 2107 2103 2096 2091 2092 2064 2053 2055 2057 2059 2059 2053 2054 2053 2059 2065 2061 2052 2040 2037 2034 2037 2028 2016 2013 2017 2027 2029 2028 2024 2022 2021 2016 2008 2004 1997 1996 1999 1994 2004 2002 2007 1992 1919 1822 1745 1626 1621 1619 1605 1592 1649 1700 1715 1713 1703 1708 1710 1666 1646 1629 1618 1610 1620 1643 1694 1693 1692 1691 1689 1688 1683 1687 1688 1685 1685 1684 1681 1679 1674 1670 1666 1662 1658 1651 1648 1644 1645 1642 1637 1622 1617 1611 1608 1602 1596 1592 1585 1578 1565 1554 1548 1536 1523 1514 1508 1495 1483 1467 1455 1440 1424 1411 1396 1378 1363 1340 1319 1301 1284 1269 1253 1235 1218 1204 1190 1173 1155 1138 1116 1099 1086 1072 1057 1046 1027 1003 980 960 941 922 899 859 842 826 814 807 803 814 818 806 793 785 775 757 731 709 691 668 644 626 596 572 553 529 507 483 462 450 443 434 428 417 407 391 375 342 333 322 312 296 278 266 245 227 213 201 188 171 148 131 108 24 19 21 28 39 41 40 38 36 15 11 7 -32768 -32768 -32768 -32768 -32768 -32768 -32768 -32768
1678 1675 1667 1482 1460 1435 1407 1378 1348 1318 1288 1258 1226 1195 1163 465 445 436 484 463 444 467 534 551 572 622 665 657 668 677 666 639 626 618 615 506 513 506 508 508 560 640 653 706 767 791 816 806 778 781 814 865 897 991 934 984 1027 1043 1172 1211 1249 1285 1319 1352 1384 1417 1450 1483 1515 1543 1568 1604 1618 1628 1636 1642 1645 1647 1646 1643 1638 1630 1619 1607 1593 1578 1560 1542 1521 1499 1475 1450 1424 1397 1370 1342 1314 1284 1254 1224 1193 1162 1131 1101 1071 1015 989 967 948 932 920 911 905 901 899 647 645 708 909 913 919 927 936 704 705 710 717 730 740 756 773 789 818 894 994 1006 1022 1084 1135 1193 1341 1398 1517 1521 1530 1538 1547 1550 1555 1562 1564 1567 1568 1571 1572 1583 1584 1582 1587 1587 1587 1589 1593 1595 1597 1597 1599 1598 1598 1601 1608 1614 1619 1619 1620 1618 1619 1622 1631 1636 1643 1645 1647 1651 1656 1659 1663 1665 1669 1673 1679 1681 1682 1689 1700 1708 1716 1733 1763 1821 1872 1864 1840 1830 1819 1805 1795 1802 1814 1823 1827 1838 1845 1846 1851 1862 1871 1868 1865 1862 1876 1893 1900 1912 1933 1949 1970 1982 1988 2006 2012 2022 2014 2000 1988 1983 1974 1973 1975 1979 1964 1939 1943 1984 2008 2039 2080 2100 2105 2097 2088 2082 2075 2067 2066 2073 2088 2103 2113 2122 2140 2152 2142 2137 2138 2151 2133 2111 2111 2117 2125 2124 2122 2115 2113 2109 2105 2080 2066 2063 2067 2068 2070 2067 2072 2077 2078 2084 2084 2080 2066 2057 2058 2053 2035 2023 2022 2041 2050 2056 2054 2050 2047 2040 2034 2027 2024 2017 2016 2021 2015 2022 2019 1994 1914 1827 1757 1723 1681 1665 1663 1639 1661 1705 1719 1720 1720 1717 1715 1715 1713 1714 1655 1642 1591 1629 1628 1699 1695 1695 1694 1693 1694 1692 1694 1693 1691 1690 1686 1684 1680 1676 1675 1670 1667 1662 1656 1657 1652 1650 1646 1639 1629 1625 1618 1614 1609 1604 1597 1591 1581 1568 1557 1547 1535 1529 1529 1519 1502 1489 1468 1459 1444 1430 1414 1396 1378 1363 1340 1319 1302 1286 1270 1254 1238 1221 1206 1189 1172 1154 1138 1118 1100 1090 1077 1065 1050 1029 1005 982 957 935 912 894 850 829 814 801 787 778 774 781 783 773 766 767 751 731 711 695 672 659 636 608 581 554 529 506 480 458 447 438 435 430 423 420 397 374 354 338 327 315 299 279 263 245 228 213 196 178 165 149 129 73 13 15 18 19 33 38 38 39 24 4 -32768 -32768 -32768 -32768 -32768 -32768 -32768 -32768 -32768 -32768
1651 1649 1652 1463 1443 1420 1394 1366 1337 1309 1282 1253 1223 542 508 469 440 449 522 571 533 524 571 581 851 813 776 635 646 677 652 633 620 612 503 506 506 506 508 592 650 668 732 774 810 840 864 857 827 813 817 847 861 1010 954 983 1071 1093 1201 1242 1279 1313 1345 1375 1406 1438 1470 1503 1534 1562 1585 1618 1629 1638 1645 1649 1651 1652 1650 1645 1638 1628 1616 1603 1588 1571 1553 1534 1512 1489 1464 1438 1411 1383 1355 1326 1297 1268 1237 1206 1175 1144 1113 1082 1052 1023 970 948 931 917 907 901 897 896 896 635 630 677 691 922 929 687 691 694 698 710 728 743 779 811 810 803 810 836 895 938 969 1040 1106 1166 1342 1422 1517 1521 1530 1541 1544 1549 1550 1560 1562 1563 1563 1565 1574 1580 1576 1580 1586 1584 1583 1587 1591 1593 1598 1600 1602 1604 1607 1610 1615 1617 1618 1620 1620 1621 1619 1622 1630 1637 1644 1646 1650 1654 1657 1658 1661 1667 1672 1677 1680 1682 1688 1697 1709 1714 1725 1742 1764 1801 1852 1885 1881 1857 1829 1812 1804 1813 1828 1850 1853 1864 1872 1859 1861 1867 1883 1886 1881 1878 1888 1904 1915 1929 1949 1971 1985 2010 2013 2017 2017 2038 2054 2033 2012 2010 2005 2006 2009 2015 2007 1981 1968 2010 2035 2069 2101 2116 2120 2116 2107 2096 2086 2083 2077 2079 2088 2103 2113 2122 2140 2175 2168 2155 2155 2172 2149 2124 2122 2125 2129 2133 2129 2126 2123 2119 2115 2112 2086 2073 2075 2078 2078 2079 2084 2092 2099 2108 2109 2099 2090 2087 2076 2033 2016 1986 1999 2031 2055 2075 2074 2069 2065 2056 2056 2051 2043 2040 2038 2038 2038 2044 1999 1912 1817 1757 1738 1732 1723 1714 1712 1712 1717 1722 1722 1723 1726 1723 1718 1713 1714 1715 1717 1717 1656 1661 1620 1664 1701 1697 1697 1697 1698 1698 1697 1698 1697 1691 1690 1686 1681 1679 1681 1676 1669 1667 1666 1667 1663 1657 1651 1648 1637 1628 1626 1620 1616 1608 1606 1597 1586 1574 1561 1549 1536 1529 1526 1516 1506 1495 1468 1456 1444 1428 1412 1394 1379 1365 1344 1322 1302 1286 1270 1254 1238 1223 1206 1190 1175 1160 1139 1122 1107 1096 1088 1075 1056 1034 1009 985 954 933 911 892 871 827 803 782 766 747 739 734 740 746 743 740 731 719 704 686 678 664 637 606 583 556 531 505 480 461 446 440 433 429 430 441 435 406 384 357 337 319 303 286 269 245 230 209 190 170 153 139 130 -32768 8 8 10 13 21 24 29 21 9 -32768 -32768 -32768 -32768 -32768 -32768 -32768 -32768 -32768 -32768 -32768
1628 1627 1632 1616 1426 1405 1381 1354 1326 1299 1273 1247 1219 564 537 488 448 450 492 578 580 574 585 908 866 824 782 742 704 671 644 624 611 476 478 483 482 516 534 592 650 668 732 783 832 887 915 902 880 849 940 969 997 1026 1059 1097 1139 1184 1229 1272 1308 1340 1368 1396 1425 1456 1489 1522 1553 1581 1602 1631 1639 1646 1651 1654 1655 1654 1651 1645 1637 1625 1612 1597 1581 1564 1545 1525 1503 1479 1452 1425 1396 1367 1339 1310 1281 1251 1220 1189 1157 1126 1095 1064 1033 1003 950 929 913 902 895 891 890 891 894 899 616 627 639 628 646 676 684 699 711 748 757 780 825 853 859 849 827 830 846 890 941 994 1074 1169 1363 1501 1514 1519 1536 1541 1544 1549 1550 1555 1557 1559 1562 1564 1573 1575 1576 1580 1581 1581 1580 1583 1591 1595 1598 1601 1604 1607 1615 1619 1619 1621 1621 1620 1620 1622 1624 1628 1633 1639 1646 1648 1650 1652 1655 1657 1663 1669 1673 1680 1682 1689 1697 1702 1711 1713 1724 1748 1771 1788 1827 1876 1898 1878 1848 1822 1812 1815 1831 1874 1876 1888 1887 1870 1868 1875 1892 1897 1896 1897 1898 1904 1914 1930 1958 1980 1994 2022 2043 2032 2027 2037 2064 2059 2034 2031 2026 2027 2035 2037 2034 2018 2007 2007 2054 2090 2117 2131 2131 2130 2124 2107 2100 2095 2087 2088 2096 2110 2120 2133 2158 2175 2168 2155 2155 2172 2162 2136 2135 2135 2136 2139 2138 2134 2132 2132 2133 2131 2104 2089 2086 2085 2085 2088 2091 2101 2114 2126 2124 2117 2109 2081 1998 1926 1899 1895 1893 1920 1981 2049 2078 2086 2083 2079 2072 2073 2066 2063 2052 2047 2052 2059 1919 1831 1757 1743 1742 1739 1736 1736 1733 1726 1725 1727 1728 1728 1727 1724 1720 1716 1717 1717 1718 1655 1636 1635 1594 1646 1704 1703 1701 1702 1703 1703 1702 1704 1699 1695 1693 1691 1686 1684 1684 1680 1675 1671 1672 1672 1667 1662 1657 1649 1639 1632 1630 1626 1621 1614 1608 1600 1590 1581 1568 1552 1536 1526 1519 1514 1506 1497 1482 1453 1440 1427 1414 1397 1377 1364 1345 1324 1308 1290 1271 1251 1235 1223 1206 1190 1175 1163 1144 1133 1121 1106 1096 1078 1057 1038 1013 989 963 943 916 893 865 827 804 781 760 738 718 706 703 705 720 720 715 703 692 678 665 651 628 601 576 554 533 511 484 462 444 437 431 431 447 469 468 439 420 361 341 320 304 291 272 249 232 213 191 166 143 125 102 -32768 -32768 -32768 5 5 6 8 13 -32768 -32768 -32768 -32768 -32768 -32768 -32768 -32768 -32768 -32768 -32768 -32768 -32768
1609 1611 1617 1608 1599 1391 1368 1341 1314 1288 1264 1240 1214 1188 549 500 458 431 446 544 567 573 583 927 880 833 786 740 698 662 633 454 463 473 529 537 531 583 620 672 707 705 731 783 832 887 920 975 968 923 955 984 1011 1040 1073 1113 1158 1207 1256 1301 1336 1363 1388 1413 1440 1471 1504 1538 1571 1598 1618 1631 1647 1651 1654 1656 1656 1655 1651 1643 1633 1620 1605 1589 1572 1555 1536 1516 1493 1467 1439 1410 1381 1351 1322 1293 1264 1234 1203 1171 1139 1108 1076 1045 1014 984 930 909 896 888 884 883 884 888 893 900 909 627 613 608 634 692 707 753 819 844 833 830 841 870 873 871 868 881 898 924 953 998 1057 1140 1267 1492 1514 1524 1537 1540 1543 1548 1551 1555 1557 1559 1562 1564 1567 1568 1574 1577 1578 1577 1578 1581 1585 1592 1597 1601 1604 1610 1617 1623 1623 1625 1625 1623 1622 1624 1626 1630 1636 1641 1646 1648 1648 1651 1655 1661 1667 1672 1675 1684 1688 1693 1702 1708 1714 1716 1718 1742 1770 1778 1803 1841 1870 1879 1861 1843 1826 1829 1847 1876 1890 1887 1888 1880 1878 1895 1903 1905 1907 1907 1912 1919 1929 1937 1954 1974 1989 2019 2050 2051 2046 2047 2073 2074 2050 2044 2046 2048 2055 2061 2061 2049 2049 2055 2077 2107 2128 2140 2144 2147 2135 2117 2110 2100 2099 2101 2106 2115 2127 2136 2156 2182 2200 2184 2180 2191 2162 2136 2135 2135 2146 2144 2145 2143 2140 2145 2150 2152 2126 2107 2098 2093 2092 2101 2104 2116 2127 2131 2133 2130 2083 1986 1898 1815 1800 1796 1799 1815 1884 1978 1990 1998 2008 2013 2024 2044 2077 2017 1986 1972 1959 1933 1841 1774 1753 1749 1749 1744 1741 1740 1738 1733 1728 1729 1729 1731 1727 1726 1726 1720 1717 1719 1721 1649 1611 1575 1585 1621 1680 1706 1705 1709 1713 1710 1707 1708 1706 1698 1696 1695 1693 1689 1688 1687 1681 1675 1679 1675 1670 1666 1659 1650 1642 1636 1635 1632 1626 1618 1604 1595 1588 1576 1562 1551 1538 1530 1519 1510 1502 1494 1483 1455 1442 1429 1413 1391 1370 1356 1339 1322 1309 1290 1269 1251 1235 1219 1205 1191 1177 1163 1144 1133 1121 1106 1088 1071 1053 1035 1011 990 969 946 918 891 861 827 801 777 751 725 706 693 678 675 682 690 694 687 676 665 649 629 611 591 567 549 528 507 487 464 443 435 430 428 443 470 465 437 418 395 343 321 301 287 267 245 224 203 183 153 127 117 98 -32768 -32768 -32768 -32768 -32768 -32768 -32768 -32768 -32768 -32768 -32768 -32768 -32768 -32768 -32768 -32768 -32768 -32768 -32768 -32768 -32768
1595 1599 1603 1597 1588 1579 1537 1329 1302 1276 1253 1232 1209 1185 1162 1143 1130 1121 1113 1099 545 554 992 942 890 839 787 737 691 650 440 483 501 532 577 613 602 606 634 672 713 728 729 762 817 876 920 975 968 923 967 995 1022 1050 1084 1124 1172 1224 1278 1326 1358 1381 1402 1424 1450 1480 1513 1549 1583 1612 1629 1639 1649 1652 1654 1655 1654 1652 1647 1639 1627 1613 1597 1580 1562 1544 1525 1504 1481 1454 1425 1394 1364 1334 1304 1275 1246 1216 1186 1154 1121 1090 1058 1027 996 965 936 890 880 875 874 876 880 886 893 902 913 614 610 646 715 752 789 823 872 930 952 926 884 888 912 916 941 968 995 1004 1011 1042 1095 1189 1300 1508 1514 1525 1529 1536 1542 1545 1549 1550 1553 1557 1558 1564 1567 1568 1569 1571 1573 1575 1576 1579 1582 1588 1594 1598 1606 1621 1627 1631 1633 1629 1627 1627 1626 1626 1626 1627 1632 1638 1640 1644 1652 1655 1657 1662 1670 1675 1677 1683 1690 1695 1704 1711 1716 1717 1724 1750 1764 1771 1792 1820 1844 1871 1881 1864 1840 1831 1861 1888 1903 1902 1891 1881 1892 1914 1920 1918 1921 1917 1922 1928 1940 1956 1969 1971 1976 2003 2034 2058 2068 2073 2078 2075 2064 2058 2057 2065 2071 2077 2083 2094 2095 2099 2114 2116 2134 2153 2156 2167 2145 2126 2117 2108 2108 2111 2116 2120 2126 2133 2150 2190 2227 2221 2201 2189 2164 2147 2145 2143 2146 2144 2145 2143 2140 2165 2164 2165 2141 2121 2108 2102 2108 2116 2120 2126 2131 2140 2153 2117 2016 1909 1831 1803 1801 1800 1801 1798 1818 1824 1870 1882 1899 1918 1938 1949 1939 1904 1872 1855 1842 1825 1791 1760 1754 1753 1751 1747 1743 1738 1734 1733 1730 1730 1730 1731 1730 1731 1730 1723 1726 1723 1680 1637 1589 1552 1578 1616 1672 1704 1709 1714 1717 1715 1713 1715 1712 1705 1704 1700 1699 1696 1696 1694 1686 1682 1683 1680 1676 1672 1663 1653 1649 1644 1639 1634 1628 1616 1603 1592 1582 1570 1559 1549 1537 1530 1518 1509 1499 1487 1476 1448 1438 1427 1411 1393 1370 1354 1338 1320 1302 1287 1266 1248 1232 1216 1208 1192 1178 1163 1147 1137 1123 1105 1088 1071 1053 1035 1011 991 969 945 919 895 865 841 793 763 742 720 698 681 676 668 657 656 666 672 656 637 593 577 570 553 513 500 478 465 460 451 436 431 428 426 431 447 429 390 382 365 335 320 295 275 252 230 203 182 164 144 124 112 -32768 -32768 -32768 -32768 -32768 -32768 -32768 -32768 -32768 -32768 -32768 -32768 -32768 -32768 -32768 -32768 -32768 -32768 -32768 -32768 -32768 -32768
1582 1585 1584 1581 1579 1573 1522 1459 1427 1399 1242 1223 1204 1183 1163 1146 1136 1131 1128 1119 1099 1058 1007 952 897 841 787 733 683 638 522 592 606 585 602 640 652 654 678 684 708 737 761 741 762 789 950 971 896 935 967 995 1022 1050 1089 1130 1178 1232 1290 1343 1370 1390 1408 1429 1453 1482 1515 1551 1587 1619 1633 1640 1647 1648 1649 1649 1648 1645 1640 1631 1618 1603 1586 1568 1549 1530 1511 1490 1467 1439 1408 1377 1345 1315 1285 1256 1227 1198 1167 1135 1103 1071 1040 1010 979 949 921 875 868 866 867 871 877 885 894 905 918 932 945 744 773 829 856 890 930 992 1028 1021 999 980 971 981 1017 1049 1079 1098 1112 1149 1205 1281 1340 1496 1510 1520 1525 1533 1538 1540 1543 1545 1548 1551 1555 1561 1564 1566 1569 1571 1573 1575 1574 1579 1582 1585 1588 1598 1615 1632 1634 1637 1639 1631 1628 1629 1627 1626 1627 1624 1628 1635 1638 1643 1651 1657 1661 1667 1673 1677 1680 1684 1690 1706 1717 1721 1722 1723 1736 1745 1748 1763 1796 1827 1839 1852 1869 1872 1849 1835 1862 1888 1906 1915 1913 1903 1914 1937 1944 1942 1942 1937 1943 1952 1958 1976 2003 1987 1977 1986 2008 2036 2059 2075 2074 2074 2072 2066 2069 2076 2082 2093 2111 2129 2120 2122 2135 2123 2136 2159 2168 2166 2146 2129 2120 2117 2114 2117 2122 2127 2128 2135 2150 2177 2210 2219 2200 2184 2165 2154 2155 2153 2153 2153 2152 2150 2150 2165 2164 2165 2161 2121 2122 2118 2127 2133 2132 2135 2136 2145 2145 2056 1969 1863 1807 1803 1803 1802 1800 1798 1803 1810 1822 1792 1809 1852 1848 1861 1823 1792 1783 1772 1772 1769 1767 1760 1756 1754 1752 1746 1742 1737 1733 1730 1730 1730 1732 1733 1733 1734 1731 1728 1728 1726 1682 1635 1567 1537 1561 1613 1681 1723 1723 1722 1722 1723 1720 1719 1716 1711 1712 1709 1706 1703 1702 1700 1691 1688 1686 1687 1681 1677 1671 1660 1652 1647 1643 1639 1630 1615 1605 1591 1581 1567 1556 1549 1539 1531 1518 1509 1501 1487 1474 1455 1431 1418 1406 1393 1378 1356 1341 1321 1308 1293 1270 1250 1232 1216 1205 1189 1174 1161 1148 1132 1118 1098 1080 1064 1047 1028 1011 991 969 945 919 895 863 834 780 753 729 712 691 676 670 661 649 636 642 631 604 583 539 506 503 480 448 431 411 398 397 399 404 417 421 417 416 422 396 355 346 331 317 306 277 254 224 200 176 160 149 130 120 89 -32768 -32768 -32768 -32768 -32768 -32768 -32768 -32768 -32768 -32768 -32768 -32768 -32768 -32768 -32768 -32768 -32768 -32768 -32768 -32768 -32768 -32768
1561 1562 1564 1565 1562 1551 1485 1431 1405 1385 1233 1218 1201 1182 1163 1147 1138 1135 1134 1129 1114 1067 1012 955 897 841 785 730 677 630 560 588 630 620 615 662 687 706 713 716 730 725 719 739 762 789 822 860 901 942 973 1000 1027 1056 1089 1130 1178 1232 1281 1330 1362 1385 1405 1425 1449 1477 1509 1543 1577 1606 1622 1631 1636 1640 1640 1639 1638 1634 1628 1618 1605 1590 1572 1553 1534 1514 1493 1471 1447 1419 1388 1356 1325 1294 1264 1235 1206 1177 1146 1115 1083 1052 1022 993 964 936 909 870 862 861 864 869 877 886 896 909 923 938 954 937 914 944 946 997 1015 1041 1123 1126 1107 1092 1085 1103 1145 1192 1204 1211 1232 1281 1324 1374 1431 1482 1505 1511 1520 1526 1531 1534 1536 1538 1542 1547 1552 1557 1560 1564 1568 1568 1569 1572 1574 1579 1582 1585 1589 1604 1625 1642 1652 1652 1643 1632 1629 1630 1630 1629 1627 1624 1626 1633 1636 1650 1660 1664 1669 1672 1676 1680 1683 1690 1700 1714 1720 1722 1725 1731 1735 1740 1753 1782 1820 1861 1872 1870 1870 1875 1860 1842 1859 1884 1896 1916 1919 1920 1931 1952 1959 1965 1967 1970 1984 1983 1985 1986 2011 2018 2003 2004 2015 2025 2046 2057 2063 2070 2071 2072 2079 2087 2092 2103 2120 2148 2143 2131 2134 2125 2131 2141 2143 2142 2135 2129 2125 2123 2121 2119 2124 2128 2130 2141 2154 2159 2175 2195 2191 2183 2170 2163 2163 2158 2159 2161 2159 2157 2160 2173 2175 2172 2169 2137 2122 2118 2127 2133 2149 2147 2147 2151 2107 2007 1923 1826 1808 1806 1805 1803 1802 1799 1798 1799 1800 1791 1789 1799 1805 1807 1788 1777 1774 1771 1768 1767 1763 1759 1758 1756 1752 1747 1743 1741 1736 1733 1731 1733 1734 1734 1736 1737 1735 1731 1728 1727 1707 1642 1583 1533 1563 1614 1718 1723 1729 1728 1726 1726 1724 1724 1725 1723 1716 1712 1710 1708 1709 1705 1698 1694 1692 1691 1686 1681 1675 1665 1659 1654 1648 1641 1627 1613 1603 1591 1584 1570 1559 1551 1540 1531 1519 1514 1501 1486 1471 1455 1425 1412 1398 1386 1375 1356 1342 1328 1313 1299 1277 1253 1236 1219 1204 1189 1178 1165 1150 1134 1116 1099 1082 1062 1038 1022 1005 990 966 942 919 895 863 834 780 753 719 700 682 671 662 654 637 624 613 577 552 530 503 478 463 437 406 384 365 352 348 343 348 382 409 403 406 401 373 345 333 319 287 276 246 215 192 175 166 150 138 127 109 44 9 -32768 -32768 -32768 -32768 -32768 -32768 -32768 -32768 -32768 -32768 -32768 -32768 -32768 -32768 -32768 -32768 -32768 -32768 -32768 -32768 -32768
1542 1547 1549 1547 1544 1525 1450 1402 1376 1386 1234 1218 1201 1183 1164 1147 1137 1132 1128 1120 1099 1056 1004 948 892 836 781 727 676 631 538 595 635 654 639 648 666 691 721 730 679 697 716 736 760 787 820 856 896 936 969 999 1027 1056 1089 1129 1176 1228 1281 1330 1362 1370 1393 1415 1439 1466 1496 1528 1559 1586 1604 1615 1621 1627 1627 1626 1624 1619 1613 1603 1590 1574 1556 1537 1516 1495 1473 1450 1424 1396 1365 1334 1303 1272 1242 1213 1184 1154 1124 1093 1063 1033 1005 977 950 924 901 881 861 860 863 869 878 888 900 914 929 946 1001 1015 1003 999 1043 1094 1098 1112 1235 1230 1250 1249 1254 1243 1263 1289 1313 1340 1358 1386 1431 1461 1478 1487 1495 1500 1512 1517 1523 1527 1531 1533 1536 1543 1547 1552 1556 1562 1566 1566 1569 1571 1574 1579 1580 1584 1589 1604 1625 1642 1667 1672 1646 1624 1629 1632 1631 1632 1628 1622 1626 1631 1636 1657 1678 1685 1680 1675 1679 1684 1687 1693 1701 1715 1721 1724 1730 1733 1735 1741 1755 1783 1824 1876 1905 1905 1888 1874 1853 1840 1858 1879 1900 1901 1900 1905 1927 1963 1982 1992 1989 1992 2007 2015 2020 2006 2005 2019 2021 2022 2028 2034 2044 2053 2060 2067 2073 2076 2085 2095 2104 2111 2121 2150 2154 2135 2130 2127 2128 2133 2135 2136 2135 2136 2132 2130 2128 2127 2129 2130 2131 2138 2156 2164 2168 2179 2180 2173 2169 2171 2169 2169 2166 2165 2166 2167 2171 2178 2180 2179 2178 2168 2151 2142 2146 2154 2149 2147 2147 2151 2107 1965 1885 1813 1807 1806 1806 1803 1802 1801 1797 1794 1791 1790 1787 1785 1789 1780 1775 1773 1773 1772 1770 1767 1765 1763 1758 1757 1753 1748 1743 1740 1735 1735 1734 1736 1738 1739 1739 1739 1735 1735 1730 1728 1732 1687 1631 1599 1652 1699 1730 1734 1735 1732 1733 1733 1732 1731 1730 1728 1723 1719 1716 1715 1715 1716 1708 1700 1697 1695 1690 1685 1677 1672 1666 1660 1655 1642 1625 1612 1604 1594 1585 1576 1563 1552 1539 1528 1517 1509 1498 1484 1465 1451 1423 1411 1396 1382 1367 1352 1342 1328 1316 1295 1271 1253 1237 1225 1204 1187 1172 1162 1148 1130 1113 1098 1084 1066 1040 1018 998 979 963 941 917 892 866 834 773 740 719 700 682 671 652 644 631 617 598 558 532 505 484 472 451 430 399 374 357 343 334 323 309 314 321 348 387 368 346 331 321 302 285 248 228 203 184 166 153 141 132 123 87 32 -32768 -32768 -32768 -32768 -32768 -32768 -32768 -32768 -32768 -32768 -32768 -32768 -32768 -32768 -32768 -32768 -32768 -32768 -32768 -32768 -32768 -32768
1522 1531 1532 1527 1530 1493 1413 1367 1360 1255 1237 1221 1204 1185 1165 1146 1132 1122 1114 1100 1075 1035 987 934 881 829 777 726 678 524 534 571 621 671 651 636 665 689 710 651 672 692 711 732 755 783 814 849 887 925 961 992 1022 1052 1085 1123 1166 1214 1263 1308 1343 1370 1393 1415 1439 1451 1480 1510 1538 1563 1582 1595 1603 1610 1611 1610 1607 1603 1596 1586 1573 1557 1539 1518 1497 1474 1451 1426 1400 1371 1341 1311 1280 1249 1219 1190 1161 1131 1102 1071 1042 1014 987 961 937 914 893 877 861 861 864 871 880 891 905 920 937 984 1003 1029 1047 1071 1118 1182 1208 1211 1243 1282 1373 1372 1360 1353 1369 1390 1415 1440 1453 1467 1471 1474 1475 1482 1492 1497 1507 1514 1519 1521 1526 1532 1536 1540 1547 1552 1556 1557 1560 1561 1566 1568 1571 1575 1578 1583 1588 1598 1622 1646 1667 1672 1646 1642 1634 1632 1630 1627 1626 1620 1622 1624 1627 1642 1666 1686 1688 1683 1681 1686 1690 1697 1700 1712 1721 1725 1732 1737 1732 1736 1747 1777 1814 1850 1883 1880 1855 1842 1825 1821 1839 1859 1880 1868 1867 1882 1919 1960 1990 2000 1989 1993 2002 2000 2005 2006 2010 2013 2021 2027 2035 2042 2052 2060 2067 2074 2080 2087 2094 2104 2116 2121 2129 2147 2158 2149 2136 2131 2133 2139 2143 2144 2143 2144 2143 2135 2131 2133 2136 2137 2136 2138 2145 2158 2169 2176 2176 2176 2175 2174 2173 2173 2172 2170 2177 2182 2184 2186 2186 2186 2189 2195 2170 2162 2164 2167 2163 2156 2157 2157 2042 1965 1885 1813 1807 1806 1808 1807 1804 1800 1796 1793 1789 1787 1786 1784 1781 1778 1777 1777 1775 1772 1768 1766 1765 1763 1754 1754 1751 1747 1745 1741 1738 1736 1737 1738 1740 1740 1740 1740 1738 1739 1737 1735 1732 1732 1728 1726 1734 1738 1741 1740 1742 1742 1740 1740 1740 1738 1736 1736 1730 1727 1723 1721 1721 1720 1713 1707 1702 1699 1696 1689 1680 1675 1669 1661 1654 1641 1628 1620 1609 1596 1585 1575 1565 1555 1541 1528 1517 1507 1493 1480 1465 1451 1423 1408 1392 1380 1365 1351 1339 1324 1311 1292 1276 1259 1239 1220 1204 1183 1163 1152 1140 1130 1116 1098 1082 1064 1043 1020 994 973 955 935 909 884 858 829 798 739 719 696 676 666 652 644 631 617 598 549 530 505 485 466 441 421 394 370 354 339 325 314 297 287 285 284 286 303 281 279 291 286 271 235 216 197 178 159 140 130 118 112 66 41 -32768 -32768 -32768 -32768 -32768 -32768 -32768 -32768 -32768 -32768 -32768 -32768 -32768 -32768 -32768 -32768 -32768 -32768 -32768 -32768 -32768 -32768
1491 1505 1506 1508 1512 1436 1378 1336 1275 1257 1240 1225 1208 1188 1166 1144 1125 1110 1095 1076 1048 1010 965 917 867 819 770 723 678 524 548 584 621 676 661 569 577 589 604 643 664 685 705 726 750 776 806 840 876 914 950 984 1015 1045 1077 1113 1153 1197 1242 1285 1321 1352 1377 1401 1425 1451 1480 1510 1538 1541 1560 1574 1583 1589 1592 1591 1589 1584 1577 1567 1554 1538 1519 1499 1476 1453 1428 1402 1375 1346 1317 1286 1256 1226 1196 1166 1137 1108 1079 1050 1021 994 969 946 924 904 887 873 861 862 866 874 884 896 911 928 946 1003 1036 1069 1106 1127 1143 1309 1311 1329 1353 1390 1409 1416 1419 1418 1425 1433 1434 1447 1453 1462 1467 1468 1472 1480 1485 1496 1501 1509 1516 1520 1522 1528 1531 1536 1542 1546 1550 1556 1556 1557 1561 1565 1570 1574 1577 1582 1588 1598 1616 1651 1681 1697 1676 1642 1634 1632 1630 1626 1624 1616 1620 1625 1627 1638 1658 1679 1682 1682 1685 1687 1690 1693 1695 1700 1708 1714 1723 1730 1727 1725 1731 1757 1788 1811 1828 1832 1816 1806 1799 1806 1820 1830 1842 1846 1858 1876 1901 1929 1953 1968 1975 1984 1986 1987 1993 2000 2009 2015 2022 2030 2040 2048 2056 2063 2065 2075 2082 2090 2101 2111 2124 2135 2146 2154 2153 2147 2141 2135 2141 2146 2151 2155 2152 2152 2153 2148 2145 2145 2142 2143 2145 2145 2146 2151 2171 2181 2180 2180 2179 2177 2179 2179 2175 2176 2178 2182 2186 2189 2194 2193 2200 2214 2194 2187 2188 2187 2179 2169 2164 2162 2024 1928 1839 1811 1808 1809 1808 1807 1804 1800 1796 1788 1787 1787 1785 1783 1782 1779 1779 1777 1775 1772 1770 1766 1761 1759 1756 1753 1751 1748 1745 1741 1742 1740 1742 1744 1742 1743 1743 1739 1739 1741 1739 1737 1738 1738 1737 1739 1741 1746 1748 1749 1750 1750 1750 1750 1749 1746 1743 1739 1738 1734 1729 1730 1727 1721 1716 1710 1704 1702 1700 1692 1683 1680 1673 1664 1657 1646 1631 1623 1612 1593 1583 1576 1566 1553 1544 1532 1519 1509 1496 1483 1471 1458 1440 1408 1393 1378 1360 1347 1338 1322 1302 1287 1274 1257 1236 1220 1207 1188 1167 1149 1133 1121 1113 1096 1076 1060 1041 1020 994 973 950 926 903 877 847 819 788 733 712 694 674 660 641 629 624 605 581 549 530 505 485 466 435 410 385 360 348 332 316 311 298 283 273 266 264 250 235 238 235 247 245 220 202 187 170 149 131 116 108 96 59 50 -32768 -32768 -32768 -32768 -32768 -32768 -32768 -32768 -32768 -32768 -32768 -32768 -32768 -32768 -32768 -32768 -32768 -32768 -32768 -32768 -32768 -32768
1447 1465 1473 1484 1491 1377 1344 1324 1275 1259 1244 1229 1212 1192 1168 1144 1120 1098 1077 1053 1023 986 943 898 852 806 761 717 676 538 567 620 573 565 563 565 572 583 597 615 656 678 699 720 744 770 799 831 866 902 939 974 1006 1036 1068 1102 1139 1180 1221 1262 1299 1331 1359 1385 1409 1435 1462 1490 1517 1541 1560 1574 1563 1569 1573 1572 1570 1565 1558 1548 1535 1518 1499 1478 1455 1430 1405 1378 1350 1321 1291 1262 1232 1202 1172 1142 1113 1085 1056 1028 1001 975 952 930 911 893 879 869 862 863 868 877 888 902 919 937 958 1121 1131 1143 1188 1222 1283 1344 1374 1389 1394 1401 1402 1410 1412 1418 1421 1424 1429 1438 1447 1453 1461 1463 1467 1477 1482 1493 1498 1505 1512 1515 1519 1526 1531 1533 1541 1544 1545 1549 1548 1551 1557 1565 1571 1573 1575 1581 1587 1601 1613 1640 1675 1699 1693 1663 1647 1638 1633 1626 1624 1616 1620 1633 1639 1643 1663 1681 1677 1674 1678 1682 1693 1694 1696 1699 1702 1705 1713 1716 1717 1721 1725 1729 1749 1773 1782 1780 1777 1789 1792 1800 1808 1813 1829 1840 1863 1879 1897 1915 1929 1941 1951 1965 1972 1981 1988 1997 2006 2014 2025 2033 2044 2052 2059 2064 2068 2076 2083 2092 2103 2114 2129 2144 2158 2160 2158 2151 2144 2140 2148 2153 2157 2160 2164 2163 2166 2163 2162 2159 2153 2151 2161 2157 2151 2160 2184 2195 2188 2188 2189 2186 2186 2186 2182 2181 2182 2184 2184 2193 2205 2205 2207 2230 2221 2214 2213 2212 2202 2195 2185 2173 2015 1889 1818 1811 1811 1810 1810 1807 1804 1801 1796 1788 1787 1787 1785 1784 1782 1782 1777 1777 1772 1771 1768 1765 1764 1760 1756 1754 1751 1748 1746 1747 1746 1745 1744 1748 1747 1746 1744 1742 1743 1742 1739 1742 1744 1745 1745 1746 1747 1752 1755 1755 1755 1758 1760 1758 1759 1758 1753 1748 1745 1739 1735 1737 1734 1728 1724 1718 1711 1707 1703 1698 1693 1684 1678 1668 1659 1647 1635 1621 1608 1596 1586 1581 1567 1552 1541 1528 1517 1508 1496 1487 1474 1459 1444 1411 1395 1379 1366 1349 1332 1316 1299 1278 1264 1252 1233 1220 1203 1188 1166 1147 1130 1115 1100 1084 1070 1055 1038 1016 989 970 945 921 898 869 842 815 785 726 702 678 660 649 636 620 605 590 567 545 523 496 477 456 435 410 385 360 340 327 313 303 292 276 264 256 250 236 224 217 210 207 210 183 174 164 150 132 117 103 90 73 54 51 -32768 -32768 -32768 -32768 -32768 -32768 -32768 -32768 -32768 -32768 -32768 -32768 -32768 -32768 -32768 -32768 -32768 -32768 -32768 -32768 -32768 -32768
1406 1421 1445 1468 1465 1399 1323 1314 1277 1263 1248 1233 1216 1195 1171 1144 1116 1089 1062 1034 1001 964 923 880 836 793 750 709 669 555 570 584 570 562 559 561 567 577 591 608 649 670 692 714 737 764 792 824 858 893 929 964 997 1028 1059 1092 1127 1165 1204 1243 1280 1312 1341 1368 1393 1419 1445 1472 1498 1521 1540 1554 1563 1569 1573 1572 1550 1546 1539 1528 1514 1497 1478 1456 1432 1407 1381 1353 1325 1296 1266 1237 1207 1178 1148 1118 1089 1061 1033 1007 981 957 935 915 898 883 871 863 859 863 870 880 893 909 928 949 971 1198 1199 1253 1305 1339 1354 1370 1375 1379 1386 1398 1398 1402 1408 1412 1419 1422 1429 1436 1442 1448 1452 1456 1463 1470 1476 1486 1492 1501 1507 1510 1513 1521 1528 1535 1536 1540 1539 1542 1544 1548 1558 1566 1571 1571 1575 1580 1589 1601 1610 1625 1645 1661 1660 1652 1645 1634 1629 1623 1620 1616 1622 1633 1639 1643 1669 1677 1681 1677 1680 1689 1693 1696 1697 1700 1703 1708 1710 1713 1713 1719 1720 1722 1726 1738 1747 1758 1780 1789 1788 1795 1814 1826 1834 1845 1866 1880 1899 1913 1927 1935 1945 1957 1972 1982 1989 1997 2006 2018 2028 2037 2048 2054 2064 2069 2071 2076 2081 2088 2098 2109 2124 2147 2164 2167 2168 2169 2149 2143 2156 2161 2164 2168 2174 2176 2179 2181 2176 2170 2161 2160 2168 2164 2158 2166 2192 2209 2205 2205 2201 2196 2193 2191 2188 2186 2193 2201 2206 2213 2220 2218 2218 2233 2248 2244 2242 2240 2230 2217 2181 2092 1971 1833 1819 1812 1811 1810 1809 1807 1804 1802 1794 1790 1789 1788 1785 1784 1782 1782 1777 1777 1774 1770 1768 1767 1764 1761 1758 1755 1754 1751 1750 1749 1747 1747 1749 1749 1748 1746 1745 1744 1744 1742 1740 1745 1748 1750 1751 1751 1754 1758 1762 1765 1764 1766 1767 1767 1767 1765 1761 1760 1760 1747 1742 1741 1741 1737 1733 1724 1715 1715 1708 1706 1699 1689 1681 1674 1664 1656 1639 1620 1609 1597 1586 1580 1571 1555 1540 1525 1513 1504 1492 1482 1472 1456 1440 1411 1397 1380 1365 1347 1330 1313 1295 1277 1261 1244 1223 1209 1195 1182 1162 1144 1126 1109 1090 1073 1063 1049 1028 1008 984 962 938 914 890 862 835 808 779 719 693 669 650 638 626 608 590 573 555 534 511 483 462 441 425 405 379 359 340 327 313 303 292 272 258 246 238 228 217 207 199 189 176 161 136 129 121 109 99 88 75 60 55 47 26 -8 -32768 -32768 -32768 -32768 -32768 -32768 -32768 -32768 -32768 -32768 -32768 -32768 -32768 -32768 -32768 -32768 -32768 -32768 -32768 -32768
1378 1401 1430 1451 1443 1370 1300 1304 1278 1462 1463 1455 1219 1198 1172 1144 1114 1083 1052 1019 985 947 906 864 822 780 738 698 660 626 598 577 563 555 553 555 562 572 585 602 642 663 685 708 732 758 787 819 852 886 921 955 987 1018 1049 1082 1117 1154 1191 1229 1264 1295 1324 1350 1376 1402 1429 1456 1482 1504 1522 1535 1543 1548 1551 1552 1550 1546 1539 1528 1493 1475 1455 1432 1408 1383 1356 1328 1300 1270 1241 1212 1182 1153 1124 1094 1065 1037 1011 985 961 939 919 901 885 872 862 856 855 863 872 884 899 917 939 962 1168 1209 1295 1332 1348 1354 1361 1366 1369 1376 1382 1391 1394 1397 1404 1409 1415 1419 1428 1431 1437 1441 1445 1449 1459 1465 1468 1474 1484 1492 1501 1507 1510 1511 1521 1529 1532 1533 1535 1539 1542 1548 1558 1566 1568 1568 1567 1575 1588 1596 1607 1614 1619 1627 1631 1630 1625 1618 1614 1614 1614 1615 1618 1628 1639 1648 1669 1677 1681 1677 1685 1702 1698 1694 1699 1701 1704 1707 1711 1713 1718 1722 1723 1724 1734 1749 1760 1769 1783 1791 1794 1806 1817 1826 1838 1848 1867 1882 1897 1910 1921 1928 1938 1954 1971 1982 1988 1996 2005 2016 2027 2035 2046 2051 2060 2069 2073 2076 2082 2087 2092 2099 2108 2134 2167 2177 2179 2181 2159 2147 2152 2172 2177 2179 2189 2201 2199 2197 2191 2181 2167 2161 2160 2170 2166 2165 2181 2198 2208 2207 2207 2205 2207 2201 2198 2207 2210 2217 2229 2236 2239 2235 2232 2245 2253 2264 2265 2263 2250 2220 2120 2044 1936 1873 1828 1812 1810 1809 1807 1804 1803 1801 1796 1793 1791 1788 1786 1785 1785 1780 1773 1773 1774 1770 1768 1767 1766 1763 1759 1755 1752 1750 1750 1750 1748 1748 1751 1748 1749 1749 1747 1746 1745 1743 1742 1747 1752 1757 1759 1760 1762 1763 1768 1772 1773 1776 1774 1776 1776 1772 1768 1769 1766 1766 1756 1749 1744 1743 1739 1732 1728 1724 1717 1711 1703 1695 1687 1679 1669 1657 1642 1625 1609 1596 1588 1579 1569 1556 1542 1530 1519 1506 1490 1476 1463 1454 1440 1408 1396 1380 1361 1341 1324 1306 1292 1280 1264 1243 1225 1206 1188 1173 1157 1139 1116 1098 1080 1065 1054 1044 1025 996 974 953 929 901 877 853 826 797 775 741 682 660 645 629 614 599 583 562 541 522 497 468 451 429 413 399 376 356 336 326 314 303 287 272 258 246 238 228 210 201 195 183 168 157 131 118 106 98 87 81 75 61 53 45 30 3 4 -32768 -32768 -32768 -32768 -32768 -32768 -32768 -32768 -32768 -32768 -32768 -32768 -32768 -32768 -32768 -32768 -32768 -32768 -32768
1361 1385 1415 1431 1412 1340 1293 1340 1434 1451 1446 1435 1385 1198 1172 1143 1111 1078 1044 1008 972 933 893 852 810 768 726 685 647 613 585 566 553 547 546 549 556 567 581 597 616 657 679 701 726 753 783 815 849 883 915 947 978 1008 1040 1072 1108 1145 1182 1218 1251 1281 1308 1333 1359 1386 1413 1441 1467 1490 1506 1517 1524 1528 1530 1531 1530 1527 1520 1508 1493 1475 1455 1432 1383 1358 1331 1303 1275 1245 1216 1187 1158 1129 1099 1070 1041 1014 988 964 942 922 904 888 874 862 854 850 850 863 874 888 905 926 950 1056 1115 1183 1290 1339 1346 1352 1357 1362 1368 1376 1381 1385 1389 1394 1400 1406 1411 1417 1424 1424 1426 1430 1436 1444 1451 1456 1461 1466 1479 1486 1492 1498 1504 1511 1522 1525 1527 1529 1533 1538 1543 1547 1552 1558 1561 1560 1564 1571 1583 1591 1596 1600 1606 1610 1614 1615 1609 1606 1605 1607 1609 1611 1615 1615 1620 1635 1657 1668 1671 1676 1685 1702 1698 1694 1711 1712 1706 1707 1712 1716 1715 1721 1725 1726 1737 1749 1758 1769 1780 1795 1801 1807 1809 1826 1838 1846 1852 1880 1896 1908 1918 1929 1936 1947 1961 1974 1985 1997 2006 2015 2026 2033 2043 2052 2063 2069 2073 2076 2081 2085 2088 2090 2097 2116 2149 2173 2180 2175 2155 2148 2151 2176 2182 2192 2205 2220 2220 2212 2202 2191 2182 2172 2169 2175 2184 2182 2195 2200 2205 2210 2219 2219 2222 2221 2221 2239 2243 2235 2242 2249 2252 2254 2259 2267 2271 2284 2286 2280 2250 2157 2036 1961 1898 1841 1817 1811 1810 1807 1807 1804 1800 1798 1796 1794 1793 1790 1788 1786 1785 1778 1775 1775 1777 1775 1770 1768 1766 1763 1759 1755 1752 1753 1752 1752 1750 1750 1752 1750 1750 1749 1748 1747 1746 1744 1747 1753 1761 1763 1764 1768 1769 1771 1778 1782 1784 1785 1783 1785 1786 1782 1778 1780 1777 1777 1770 1759 1755 1755 1751 1744 1740 1732 1727 1719 1710 1700 1689 1681 1668 1657 1645 1628 1613 1603 1593 1582 1571 1560 1547 1534 1522 1503 1488 1472 1459 1452 1437 1420 1392 1374 1356 1336 1320 1301 1284 1271 1254 1237 1220 1203 1186 1169 1150 1130 1111 1092 1073 1059 1045 1030 1018 1000 973 946 916 891 862 838 813 786 762 733 676 650 627 609 595 591 576 548 526 508 491 463 441 419 401 382 362 346 335 328 320 320 315 288 257 240 230 223 210 201 195 183 169 161 132 123 113 102 88 79 72 64 52 41 16 5 -32768 -32768 -32768 -32768 -32768 -32768 -32768 -32768 -32768 -32768 -32768 -32768 -32768 -32768 -32768 -32768 -32768 -32768 -32768 -32768
1346 1372 1393 1408 1385 1301 1267 1350 1420 1437 1428 1403 1334 1196 1168 1138 1106 1072 1036 999 961 922 883 842 800 758 715 673 634 598 570 552 542 537 538 542 550 561 576 593 612 651 672 695 719 747 778 812 847 880 911 940 968 997 1028 1062 1097 1135 1174 1210 1240 1267 1291 1315 1341 1368 1396 1425 1453 1476 1491 1500 1504 1506 1507 1509 1509 1507 1500 1488 1472 1452 1431 1408 1383 1358 1331 1278 1249 1220 1191 1162 1133 1104 1075 1047 1018 991 965 944 924 907 890 876 864 854 847 844 846 853 876 892 911 934 960 1043 1100 1176 1306 1337 1346 1352 1356 1363 1367 1371 1376 1382 1387 1392 1398 1403 1409 1414 1417 1416 1422 1429 1436 1439 1444 1450 1454 1462 1475 1481 1485 1492 1500 1506 1513 1522 1525 1530 1535 1540 1544 1549 1553 1553 1555 1556 1563 1567 1577 1586 1589 1591 1596 1600 1606 1604 1603 1602 1605 1606 1610 1610 1612 1614 1617 1620 1632 1648 1653 1660 1678 1686 1687 1699 1711 1712 1706 1707 1709 1714 1717 1723 1728 1731 1741 1750 1758 1771 1793 1804 1805 1809 1814 1824 1837 1843 1849 1884 1907 1914 1920 1929 1934 1944 1956 1970 1983 1994 2004 2017 2024 2029 2044 2053 2062 2072 2074 2076 2080 2082 2090 2091 2096 2104 2116 2121 2117 2114 2137 2137 2149 2174 2186 2199 2213 2231 2235 2226 2220 2215 2199 2188 2182 2182 2193 2200 2211 2217 2221 2225 2231 2238 2242 2237 2241 2253 2270 2267 2264 2266 2270 2276 2290 2300 2302 2315 2312 2266 2184 2082 1995 1901 1834 1824 1818 1815 1812 1813 1815 1807 1803 1798 1797 1796 1794 1792 1791 1787 1783 1780 1777 1776 1775 1773 1769 1769 1767 1763 1760 1758 1753 1753 1752 1752 1750 1753 1752 1750 1750 1749 1750 1749 1746 1746 1746 1754 1764 1768 1767 1772 1777 1781 1786 1790 1790 1794 1794 1797 1795 1792 1792 1790 1788 1791 1784 1770 1766 1762 1759 1758 1759 1749 1740 1729 1717 1702 1690 1682 1662 1654 1641 1629 1618 1607 1594 1582 1570 1560 1548 1535 1518 1498 1485 1471 1460 1445 1434 1418 1384 1368 1349 1331 1317 1299 1283 1262 1245 1228 1208 1190 1172 1161 1145 1127 1110 1093 1073 1053 1034 1013 999 984 960 938 909 888 861 834 807 778 754 727 668 643 622 597 580 569 553 533 510 489 471 455 430 411 395 371 354 344 333 335 332 328 323 307 277 247 228 219 209 195 186 177 169 161 132 123 113 102 91 79 69 61 45 30 10 10 -32768 -32768 -32768 -32768 -32768 -32768 -32768 -32768 -32768 -32768 -32768 -32768 -32768 -32768 -32768 -32768 -32768 -32768 -32768 -32768
1324 1344 1365 1382 1392 1289 1256 1310 1394 1412 1406 1391 1313 1192 1162 1130 1098 1064 1028 990 951 913 873 833 792 749 706 663 621 584 555 539 531 528 530 536 545 557 572 589 608 645 665 687 712 741 772 807 843 878 906 932 957 984 1015 1048 1085 1124 1164 1201 1229 1252 1273 1296 1320 1347 1376 1407 1437 1461 1474 1480 1482 1482 1483 1484 1486 1485 1479 1466 1448 1427 1405 1382 1357 1332 1305 1278 1249 1220 1191 1137 1108 1080 1052 1024 996 969 944 925 908 892 878 866 855 847 842 840 843 852 879 896 917 941 969 1040 1080 1221 1300 1334 1344 1351 1355 1361 1366 1367 1373 1378 1383 1386 1390 1397 1402 1404 1407 1411 1417 1421 1428 1433 1438 1444 1449 1456 1462 1473 1483 1491 1500 1505 1513 1519 1526 1534 1536 1543 1548 1552 1552 1554 1555 1559 1559 1565 1575 1581 1584 1588 1590 1605 1620 1610 1605 1607 1602 1602 1607 1605 1610 1614 1617 1621 1628 1639 1646 1652 1663 1673 1677 1690 1710 1713 1708 1707 1709 1714 1717 1722 1727 1735 1743 1751 1760 1780 1803 1812 1816 1817 1818 1827 1836 1844 1853 1888 1902 1911 1916 1927 1935 1942 1948 1963 1974 1989 2006 2018 2026 2033 2045 2054 2063 2071 2073 2073 2079 2083 2087 2096 2069 2060 2033 2008 1992 1960 1942 2050 2117 2153 2182 2199 2217 2241 2255 2256 2249 2242 2226 2221 2209 2204 2207 2219 2234 2238 2243 2241 2244 2255 2265 2251 2252 2261 2281 2290 2289 2285 2290 2294 2312 2328 2334 2334 2295 2241 2174 2033 1969 1877 1830 1824 1821 1820 1815 1817 1812 1804 1804 1802 1799 1795 1793 1793 1790 1785 1781 1780 1779 1777 1775 1775 1776 1770 1766 1764 1761 1760 1755 1755 1755 1754 1752 1753 1752 1750 1750 1749 1749 1748 1748 1746 1748 1754 1766 1770 1775 1774 1780 1787 1794 1797 1799 1805 1807 1806 1806 1808 1808 1804 1804 1807 1799 1788 1779 1775 1771 1773 1774 1760 1750 1739 1721 1701 1686 1673 1664 1656 1641 1630 1617 1605 1590 1578 1569 1558 1547 1535 1519 1501 1486 1472 1456 1443 1432 1412 1376 1359 1339 1324 1306 1292 1280 1261 1238 1220 1201 1181 1163 1150 1136 1121 1107 1092 1069 1048 1028 1006 987 966 945 923 903 880 856 831 800 770 742 714 688 635 609 590 577 556 533 514 497 475 457 441 421 402 389 373 358 351 342 342 335 315 306 295 279 256 235 220 212 198 194 183 177 170 155 127 116 102 91 79 69 61 48 35 18 5 -32768 -32768 -32768 -32768 -32768 -32768 -32768 -32768 -32768 -32768 -32768 -32768 -32768 -32768 -32768 -32768 -32768 -32768 -32768 -32768
1302 1321 1342 1363 1368 1307 1254 1277 1356 1393 1391 1380 1342 1185 1152 1120 1087 1053 1018 980 941 902 863 824 784 742 698 655 613 574 543 530 524 522 525 531 540 552 567 585 604 622 659 680 704 732 764 799 836 872 899 922 945 970 999 1031 1067 1107 1148 1187 1212 1233 1252 1273 1296 1322 1351 1383 1414 1441 1451 1455 1456 1455 1455 1456 1459 1459 1456 1441 1422 1400 1378 1354 1330 1305 1279 1251 1223 1194 1165 1137 1108 1080 1052 1002 975 950 927 909 893 879 867 857 848 842 839 839 844 855 884 902 923 948 976 1006 1037 1244 1290 1334 1343 1350 1351 1356 1360 1364 1372 1375 1376 1380 1382 1388 1392 1395 1401 1404 1411 1418 1421 1428 1433 1440 1446 1451 1454 1471 1484 1490 1494 1502 1512 1516 1524 1536 1541 1544 1546 1551 1553 1555 1556 1558 1559 1565 1571 1576 1579 1579 1587 1620 1649 1647 1636 1621 1602 1602 1602 1606 1607 1614 1620 1624 1626 1634 1642 1646 1651 1661 1665 1671 1685 1691 1698 1704 1708 1713 1717 1722 1727 1735 1743 1751 1765 1788 1809 1819 1821 1823 1824 1828 1834 1846 1857 1868 1891 1902 1916 1925 1932 1937 1947 1962 1968 1982 2009 2026 2029 2037 2049 2057 2064 2071 2075 2076 2080 2086 2080 2025 1959 1914 1889 1870 1879 1895 1907 1956 2034 2128 2178 2198 2225 2257 2275 2279 2268 2260 2251 2246 2254 2256 2254 2247 2248 2252 2255 2257 2261 2265 2263 2259 2262 2270 2287 2298 2305 2298 2304 2312 2331 2348 2347 2311 2250 2180 2099 1985 1958 1867 1833 1829 1826 1822 1820 1821 1813 1806 1804 1801 1797 1797 1795 1791 1787 1785 1783 1782 1779 1779 1775 1774 1773 1768 1766 1765 1764 1762 1758 1757 1758 1757 1757 1756 1754 1752 1751 1750 1749 1748 1748 1746 1748 1762 1770 1774 1778 1783 1787 1794 1800 1805 1811 1814 1818 1819 1824 1825 1824 1825 1831 1830 1818 1810 1794 1786 1781 1784 1781 1769 1758 1740 1728 1700 1682 1674 1663 1654 1644 1632 1616 1602 1587 1575 1564 1555 1543 1528 1514 1500 1484 1468 1451 1438 1424 1408 1387 1349 1331 1314 1296 1282 1266 1254 1237 1217 1194 1176 1160 1145 1130 1112 1099 1085 1067 1044 1022 998 977 957 934 910 892 868 841 821 794 767 740 709 683 622 601 584 569 544 520 500 484 466 455 435 421 411 400 386 370 358 348 344 339 325 316 299 274 259 245 233 216 202 194 184 177 167 155 127 108 96 87 76 69 61 48 35 18 5 -32768 -32768 -32768 -32768 -32768 -32768 -32768 -32768 -32768 -32768 -32768 -32768 -32768 -32768 -32768 -32768 -32768 -32768 -32768 -32768
1280 1297 1314 1329 1346 1342 1257 1234 1330 1371 1376 1370 1351 1174 1141 1108 1075 1041 1006 969 931 892 853 815 775 735 693 650 610 573 544 529 522 520 522 527 536 547 562 579 598 616 653 673 696 723 753 786 821 856 883 907 930 953 980 1011 1046 1083 1122 1158 1186 1207 1227 1246 1268 1293 1321 1351 1380 1405 1417 1423 1425 1425 1425 1425 1428 1427 1422 1409 1391 1371 1349 1326 1302 1277 1251 1225 1197 1168 1140 1112 1084 1056 1029 1002 975 950 912 895 880 867 857 849 843 838 837 840 847 859 873 908 929 954 981 1010 1040 1067 1299 1332 1342 1347 1351 1354 1357 1361 1365 1371 1375 1377 1379 1383 1385 1390 1396 1401 1407 1415 1416 1423 1429 1436 1439 1443 1448 1467 1478 1486 1486 1496 1500 1508 1524 1542 1540 1540 1547 1555 1554 1556 1557 1556 1560 1561 1564 1569 1572 1575 1582 1613 1634 1639 1626 1606 1597 1599 1601 1602 1604 1610 1625 1627 1629 1632 1636 1641 1648 1656 1662 1670 1681 1690 1696 1703 1709 1714 1718 1721 1726 1735 1744 1751 1765 1788 1809 1821 1827 1831 1832 1833 1836 1845 1857 1866 1886 1901 1915 1924 1932 1940 1947 1959 1965 1980 2006 2023 2028 2038 2049 2055 2067 2073 2074 2078 2076 2063 2012 1926 1861 1824 1802 1790 1820 1860 1902 1931 1962 2045 2195 2225 2266 2294 2291 2278 2273 2268 2270 2268 2280 2292 2287 2271 2263 2270 2271 2274 2275 2278 2276 2277 2282 2291 2295 2303 2311 2314 2322 2327 2341 2334 2272 2223 2121 2067 2038 2011 1961 1862 1835 1834 1828 1824 1827 1824 1818 1811 1807 1803 1800 1800 1800 1795 1790 1788 1785 1783 1782 1779 1776 1773 1770 1766 1767 1766 1765 1763 1760 1760 1760 1759 1761 1758 1757 1754 1753 1753 1752 1751 1749 1750 1753 1762 1770 1774 1778 1787 1795 1799 1804 1811 1818 1824 1831 1832 1836 1843 1844 1849 1869 1861 1848 1831 1814 1805 1797 1790 1785 1777 1766 1762 1741 1710 1690 1680 1668 1658 1641 1631 1615 1600 1588 1572 1560 1547 1535 1518 1505 1494 1477 1462 1451 1438 1423 1405 1387 1345 1327 1309 1293 1275 1259 1247 1230 1213 1192 1171 1153 1135 1118 1099 1086 1075 1058 1036 1016 993 970 950 925 900 881 856 835 810 776 747 722 695 667 606 586 573 550 525 507 495 480 469 461 445 429 416 409 397 386 371 357 348 341 333 316 298 270 265 255 239 226 212 199 189 178 167 149 121 102 92 82 73 64 59 47 37 18 3 -32768 -32768 -32768 -32768 -32768 -32768 -32768 -32768 -32768 -32768 -32768 -32768 -32768 -32768 -32768 -32768 -32768 -32768 -32768 -32768
1266 1274 1291 1314 1331 1329 1257 1226 1332 1356 1358 1357 1323 1276 1128 1095 1062 1029 994 958 920 881 843 804 766 728 688 648 609 575 549 532 523 520 520 525 533 543 557 573 591 610 646 665 687 712 740 771 804 836 865 890 913 936 961 989 1021 1055 1091 1125 1154 1178 1198 1218 1238 1262 1288 1315 1341 1364 1378 1387 1390 1391 1392 1392 1393 1392 1386 1374 1359 1340 1318 1296 1273 1249 1223 1197 1170 1142 1115 1087 1060 1033 1007 981 956 933 912 895 880 867 848 842 838 836 837 842 851 863 879 915 936 960 986 1014 1042 1069 1320 1328 1335 1339 1348 1352 1355 1358 1362 1366 1370 1374 1374 1379 1383 1388 1395 1400 1406 1410 1412 1417 1422 1429 1431 1436 1443 1451 1473 1476 1476 1483 1488 1496 1524 1554 1547 1541 1541 1551 1552 1558 1557 1559 1560 1561 1563 1564 1568 1571 1573 1583 1591 1594 1592 1590 1594 1597 1599 1600 1602 1607 1629 1630 1634 1636 1637 1644 1650 1656 1662 1666 1677 1687 1695 1703 1709 1712 1717 1718 1723 1730 1746 1758 1772 1792 1808 1821 1827 1831 1838 1843 1846 1851 1862 1866 1877 1897 1910 1917 1926 1934 1944 1954 1969 1988 2008 2024 2030 2040 2051 2059 2068 2069 2071 2073 2058 2002 1929 1847 1803 1793 1776 1777 1809 1841 1867 1889 1908 1971 2181 2245 2293 2309 2305 2285 2276 2280 2296 2301 2295 2309 2316 2304 2294 2289 2288 2290 2291 2292 2292 2299 2304 2307 2312 2315 2321 2326 2338 2338 2331 2240 2153 2101 2038 1919 1920 1900 1860 1856 1839 1836 1831 1827 1829 1825 1819 1816 1810 1809 1805 1807 1805 1800 1794 1789 1784 1784 1783 1779 1775 1773 1773 1771 1769 1767 1764 1763 1762 1760 1763 1763 1763 1760 1759 1757 1755 1754 1753 1755 1756 1758 1762 1770 1775 1778 1781 1787 1795 1799 1804 1811 1828 1837 1837 1844 1850 1856 1863 1870 1886 1873 1861 1852 1851 1836 1815 1803 1789 1779 1773 1759 1734 1715 1698 1683 1672 1658 1644 1629 1614 1598 1583 1568 1555 1540 1526 1509 1496 1485 1471 1456 1445 1429 1413 1395 1380 1342 1325 1305 1287 1269 1250 1236 1219 1203 1182 1161 1143 1121 1102 1082 1067 1058 1044 1030 1007 986 965 941 917 895 872 848 825 795 773 740 705 676 648 594 601 603 577 552 529 511 497 484 466 447 434 427 427 417 403 381 364 351 339 325 310 297 278 271 263 242 232 218 204 190 180 170 151 135 106 89 80 72 65 61 48 28 12 6 -32768 -32768 -32768 -32768 -32768 -32768 -32768 -32768 -32768 -32768 -32768 -32768 -32768 -32768 -32768 -32768 -32768 -32768 -32768 -32768
